# .PCD v0.7 - Point Cloud Data file format
VERSION 0.7
FIELDS x y z
SIZE 4 4 4
TYPE F F F
COUNT 1 1 1
WIDTH 849
HEIGHT 1
VIEWPOINT 0 0 0 1 0 0 0
POINTS 849
DATA ascii
-179.65355456288555 -110.89972389166832 209.87726584364802
-8.478868462374779 34.56696228737127 9.905296528426074
6.678485304233557 36.63516390464201 -7.802028960907021
12.2802860498305 14.865324113014115 -14.34623916118591
2.9954521690652607 -188.12903198979748 -3.4993869881309863
-77.26918027727858 -18.028173088712556 90.26842986787985
-7.150547397145088 36.16450068403152 8.353507619983718
85.61737117920585 180.88413378906955 -100.0210645179447
85.16926354170862 -35.099892575325974 -99.49757025149168
-14.950345874655968 -186.99718995262137 17.465491975508506
-96.00642163684691 -6.4078214798890905 112.15789927229504
-101.34668694594991 330.94991953354605 118.39657506516338
1955.810131928625 2834.375500849524 -2284.8425348288933
160.02839802245833 -124.50662665990296 -186.95050435273254
-51.47983269910678 -298.85966205340526 60.140455106859534
-213.13752861062045 5.484862173849919 248.99435951773043
-69.16924935218458 328.6562734990668 80.80582079110772
171.9924772690184 208.61154319137032 -200.92734019499702
128.33178001011703 -134.3366162405341 -149.92145952750406
-59.70410614487491 -212.49858436818485 69.74832525753966
-160.0639721281839 41.836786023159796 186.99206320784498
-31.717719785298918 261.6976928281976 37.053696619197
140.71411524053545 134.51337057188954 -164.38691594022438
110.95938267413194 -154.44414635810875 -129.62644636788542
-78.11850419518684 -195.35000183240035 91.26063835571028
0.714977511196334 -29.677834564189816 -0.8352605410713263
130.79728279134744 -34.68941450604691 -152.80174199067915
50.08351562422924 144.75096573194713 -58.50923099532369
-99.8684931371376 191.57720746357967 116.66969982612133
-73.11666369668713 -33.27448773871111 85.41732169790548
406.83155558338706 -3987.2883019445517 -475.2741728517902
657.6325115246813 -115.03452007225488 -768.2682025663927
84.8363918779171 311.85946720511527 -99.10869848748249
-156.8401400085009 226.45338349308147 183.22587515515514
-2204.1920530928314 -2177.6603208153515 2575.0105675503883
48.744101976129805 -233.39573957973434 -56.944483362131855
2628.333392347035 20.0 -3070.506606192784
94.33463275768577 20.0 42.16711944717779
23.29417565041899 -66.25523850594931 10.412382582734239
-14.975815484451315 9.364387282112821 -6.694116274071189
-13.558970379157056 32.713127275071635 -6.060793441866442
7.2909322752904275 37.86633855673968 3.2590110667326173
14.278057008015933 -80.17652636677526 6.382221647876925
-16.129170457116327 11.629028811350247 -7.209660305734361
-11.915741205855028 34.58186455058086 -5.3262780385182635
9.385580503517373 36.6521819751327 4.195308579718576
17.2404097607926 14.865324113014115 7.706378839349454
4.230190274050077 -189.3587308530286 1.8908743624236617
-100.21867456402899 -15.132472188241493 -44.79725735546416
-10.038721137318447 36.16450068403152 -4.4872592484834515
119.1987760037465 179.54530290997442 53.28126986637218
121.3875930538332 -35.93750090781034 54.25966038214493
-20.851874594880268 -185.64550138328556 -9.320685956327653
-135.92564970396137 -6.631437517223798 -60.75810059837449
-142.33066057708575 331.0571991331781 -63.621109131425726
2698.5178052378355 2785.9322452747333 1206.2242603528778
15.390735917776365 10.100551716304215 6.879583678370452
-76.00612580291818 -315.3296458150364 -33.974366484060475
-299.9463132981179 5.449910458162712 -134.0745349915181
-102.72910264933756 346.5250013121349 -45.91940643096508
272.1231002656904 232.56175454012828 121.63769485077927
2903.6796689666967 -2467.39272247063 1297.9306099825228
-116.05987704222085 -301.928271478642 -51.87819738308538
-316.7166577474506 50.77704599630162 -141.57079693575844
-61.08015191767099 351.5366576159022 -27.302529161055723
275.65962413685025 179.79110225785848 123.21850372386879
220.03602661554473 -226.40360776458047 98.35502768970214
-1799.0959941718395 -3512.6954333605213 -804.1871099244008
-180.1599945908648 -333.76121798235425 -80.53063641037986
12.493051644615907 6.009868272157247 5.5843329809895295
15.775263895191799 29.14441791798236 7.05146580352917
-3.534204284278934 39.18329013524689 -1.57977202909899
-17.796442494882307 21.729375187055307 -7.954922751903046
-101.70831475917724 -262.1197368106486 -45.46311923678914
14.059191355570093 7.9564090228617665 6.284389771716721
14.531566812876939 31.350948651350745 6.495539290720389
-5.82102828516529 38.50216948686476 -2.601971172522184
-286.61212319133256 6.096738411766449 -128.11421723199
-4.300656303571678 1.0260352068421739 -1.9223723329668676
15.390735917776365 10.100551716304215 6.879583678370452
216.36778196947645 241.77308736905013 96.71534027448156
-8.005434924106364 37.49551470666292 -3.5783902560843863
-301.64260709510495 -39.09978183574325 -134.8327700221117
-1.970200320573724 0.5694768157980121 -0.8806699069460423
173.44330540260353 -59.92567287423772 77.52830919489699
79.95152670643222 127.0136034458249 35.73794139077389
-105.57345605282212 189.99597650316525 -47.19081849044489
-129.7382303635152 -25.48079277466175 -57.99235441617913
4.188577208940755 -187.29923519590983 1.872273525851422
129.69510091895177 -18.626825962292394 57.973075765407586
101.33261648381121 199.78740569881387 45.29518394525998
-87.00256826288323 126.46921950089414 -38.88972247950305
-21.75581713320499 8.708823005386497 -9.724743849729672
3.6585848808388786 -5.66906159393255 1.6353695474094339
3667.371708320349 -516.3859081737477 1639.2972163168292
1505.2291744449492 3708.5453081573123 672.830078824108
-2809.48801790855 2654.2250001788584 -1255.8274026557083
-56.402521438370854 -20.056274394784296 -25.211651215338186
-27.79971156789423 -37.11113440573417 208.19635746965423
-0.33206430624095723 -93.3622391071339 2.4868811619217768
2.4643464093274376 14.040952357451664 -18.45587299394624
1.4553362430098191 36.16450068403152 -10.899239150313498
-17.28470879922253 179.58399744405233 129.44786866342292
-16.492557274697077 -32.4241992910009 123.51532286821038
3.0045351708582184 -184.39320167934213 -22.501430525076813
530.4160133248471 -696.8443462032862 -3972.3679020232953
8.20876656034429 143.74701817558923 -61.476727663467614
-391.37455336751464 2787.0937901897846 2931.0648140512876
-463.5308999190687 -2036.57873308523 3471.454899885892
129.67502039931537 -3926.342043155944 -971.1563674322538
533.9884205474012 -158.67715243402506 -3999.1222145390057
173.77748054220754 3830.057124353123 -1301.4465409391248
-435.0233943550489 2363.944769000639 3257.957763252672
-424.71875279700555 -2489.6441038565245 3180.7847022237675
198.28206074076817 -3773.809160216783 -1484.9651478211956
14.810227991187132 29.92733819692352 -110.91609758359225
104.64901326828303 3938.155152335247 -783.7327132707513
-39.70213555434012 178.7480305464978 297.33545925441354
-371.2201717869094 -2847.4765907070237 2780.1255202428756
262.733996232408 -3538.632799248928 -1967.6557026658616
262.90356984091363 -3540.9296097636256 -1968.9256657562207
-1.8111461206561255 6.009868272157247 13.5639545843843
-2.286975898191901 29.14441791798236 17.127517688864682
0.5118380165305527 39.16368534205809 -3.8332343987058723
2.57735407893634 21.72760781333323 -19.302204982724128
14.696760259814273 -261.1989319199637 -110.06632012081249
-2.0381929577771922 7.9564090228617665 15.264343609938228
-2.106674302554404 31.350948651350745 15.777211036724953
0.8430252843335917 38.48326078018426 -6.31354728355436
2.587587534724579 19.13417078987516 -19.378844922467195
9.708365335749933 -275.4503510144811 -72.70745579325079
-2.2312300024419343 10.100551716304215 16.710028017769318
-1.889307086552994 33.357766523091165 14.149314197065722
19.29848875933564 310.92439426889354 -144.52937954230336
2.549657322422771 16.55420011760615 -19.094779671646133
4.900613821351676 -313.38007118551775 -36.70145801617562
-25.34576299571762 -60.565512572663266 189.81835549300533
-12.319996602054834 133.74645237537857 92.26636795572428
15.300013198251055 189.93809849560097 -114.58417506720886
18.827354460212074 -25.52651436782709 -141.00098160490077
-0.5787916878513342 -177.59161246259762 4.334660841716376
-20.058908893524457 -21.208594522739055 150.22428402712313
-13.835929632388988 189.32980138228956 103.61942585751935
13.703982653223086 135.6788181644189 -102.63125443802912
26.764065649835626 -75.81443595315372 -200.44024434446865
-4.612462471135053 -203.22598483130028 34.54344780198518
-529.749260245186 -514.4509255873182 3967.3744846571435
-218.10253617050176 3706.6189936782766 1633.4037666071924
408.9558739499005 2664.948246663049 -3062.734054425218
11.678289873353584 -37.20926002112613 -87.46052660182825
-152.49329109932083 -3874.9682080694824 1142.0459405810707
-13.763258492667417 20.0 103.07518040568262
-85.41533390282791 20.0 13.335037842781642
-5.479223951530607 1.2530304303356417 0.8554161811959758
16.224101553660265 9.353506859895033 -2.5329059584233415
14.674145589856828 32.713127275071635 -2.2909269075016705
-7.882520553899494 37.84807965172512 1.2306187317880843
-19.14609160441269 17.412523285588538 2.989086905363654
-35.02121631153919 -207.0397869002987 5.467510615200617
75.48377737205755 -16.19856287920461 -11.784523712306958
12.882587771171957 34.56696228737127 -2.0112289865537423
-10.147129123663001 36.63516390464201 1.5841693133644468
-18.639301417963555 14.870571610088192 2.9099668456992167
-4.370638030287372 -179.87105425785526 0.682343800204393
126.01120400251293 -20.817190271797834 -19.6728631407054
10.86436885587046 36.16450068403152 -1.6961447460451162
-129.02120704982906 179.56851963042115 20.14278467245884
-130.70644886721823 -35.65442031396145 20.405884544370466
22.444710210302375 -184.53234609089137 -3.504067084314711
147.8150266560638 -6.759972719786262 -23.07687489031906
151.65947392329943 326.25643704964307 -23.677069813767908
-245.42482614356368 252.438802736081 38.31571211681669
-288.66554940070256 -151.5617428643974 45.06645176315676
80.32655923931596 -307.45860466554734 -12.54057858575269
333.3216950698917 5.059690037452386 -52.03816708875465
108.44839162293223 338.50770967960483 -16.930957712181065
-272.39830341472435 216.60655919797387 42.526810098023894
-263.95598475538856 -188.93012173383283 41.20879571279491
1483.1065266968214 -3781.2221046397713 -231.5425199985523
3990.7549048056444 378.33148740428163 -623.0364648271641
54.50795356735611 293.3790386213085 -8.509779103365577
-3551.021185859404 1921.982797520885 554.3852576614084
-76.52898916771723 -59.18686211002256 11.947702127844149
1948.1287328004776 -3514.6254528424533 -304.1417645695644
46.90568837406089 -65.10425272138941 -7.32291382506808
-186.92500956231447 -173.41696680046678 29.182723550686227
-17.090186757249505 29.15377282122326 2.668119138975615
3.82097060576504 39.16368534205809 -0.5965297481831441
19.26013412883147 21.729375187055307 -3.0068912188203094
7.094606042502663 1.816428673848808 -1.1076095559613341
-236.75485939138792 -167.3995076851893 36.96215732222383
-15.72673448632054 31.350948651350745 2.455257035663479
6.293348143988617 38.48326078018426 -0.9825172111761697
19.316845546263675 19.13417078987516 -3.015745002596845
74.92463384174607 -285.4371590820818 -11.69723025110323
-16.656567075303965 10.100551716304215 2.6004224549739225
-14.104045830584878 33.357766523091165 2.2019229603567605
143.8766162545847 310.5399757035453 -22.462010446847163
19.01423720967264 16.557721630005123 -2.968501803564533
36.59712576445388 -313.4993378239886 -5.713541523600765
-188.0908785155141 -60.088541161109674 29.36473895588652
-92.71580701572904 134.66738228643243 14.474787355925246
115.09562320917294 191.24448780919533 -17.968723189432435
138.6302036714973 -24.904700700778562 -21.64294076535523
-4.265044884597657 -175.04223677053315 0.6658586033507156
-152.21301643876632 -21.888145393832232 23.763488844802044
-100.1218009183935 184.13928988263146 15.631010769718761
106.80357165992588 140.76794105049288 -16.67416849824197
151.85150245642092 -52.821026601210406 -23.70704929917251
-26.21523746789615 -149.95131966021316 4.092721619394482
-4015.0382401163615 -522.607763945844 626.8275779741988
-1642.1971580354918 3738.362100046076 256.37974175251367
3068.4576672993558 2678.3961991974984 -479.0474642288518
73.38566528002077 -28.15674873592701 -11.456966552868378
-25.137166046689522 -66.00591819453689 3.9244131606888524
-86.04767414224735 20.0 13.433758770709694
-36.84083688344884 20.0 -77.75367732607324
-10.707845876083653 -64.53876405430228 -22.599225846586993
31.630649110687926 -27.895618602700118 66.75742172598656
45.927017177888025 111.81414015178332 96.93032993511714
-3.4160431820446915 37.84807965172512 -7.20966030573436
-8.305818497537674 17.40987625058658 -17.52967592537539
-1.2925553987681475 0.664221116502695 -2.7279764496078442
7.564781412228367 11.629028811350247 15.965695210168581
48.88695420692114 147.55592194245972 103.17736469681476
-34.40362035352556 150.1456940774934 -72.60985965871286
-8.085966457134314 14.865324113014115 -17.065671682934266
-0.18522243916710698 0.4547863608389804 -0.3909174434367316
8.099041705800568 13.946461064909977 17.09326738248285
49.712746103686065 190.67397602034714 104.9202229517094
-34.225161709078364 117.67274291942118 -72.23321740435001
-7.715953321967203 12.418869027745634 -16.284748002801543
9.841706686071767 -186.94749551992518 20.771213434363364
59.60332781086796 -4.8988534169297 125.7945885656154
780.6119473452359 3657.4131651582256 1647.504633588475
-105.50920735308073 250.58033087199877 -222.68030689462464
-124.14989408807149 -150.2603831667453 -262.0220283140975
34.60369184599283 -305.50782874563697 73.0321164689113
142.88153044288669 5.222060666024596 301.55570159978697
46.63968341302024 336.0779408711612 98.43443313078998
-116.75222895522383 214.44668559270403 -246.4090369609018
-93.85649246550079 -151.42557857842743 -198.08690701589742
43.31941065020394 -236.19768397894353 91.42689913118774
117.4516486517888 44.334968779319915 247.88518294461707
23.280736601238388 289.42867279376406 49.13468408257655
-82.18125448542105 -176.21928240461312 -173.44597148340216
57.08176102562323 -218.9818240862823 120.4727471862697
56.960776478227416 -218.47530313627303 120.217405715895
-5.859396496209887 6.009868272157247 -12.366429837985208
-7.406363935593112 29.15377282122326 -15.631350434014973
1.6558917287135648 39.16368534205809 3.494808534578955
8.338222569331364 21.72760781333323 17.59806567857965
3.0745851450770996 1.816428673848808 6.48900300604364
-93.61027390259494 -150.97586904321972 -197.56725544684002
-12.714105076133215 41.174889888223106 -26.833495305954283
2.7273444924759085 38.48326078018426 5.756141324799427
8.362774445118362 19.135055643436864 17.649883139560014
2.0191247485795034 1.006624501171423 4.261422580567679
-115.90498826191566 -138.9532384007644 -244.620910385672
-6.112261841801429 33.357766523091165 -12.900109638752811
3.7508113310113917 37.4776347733909 7.916198398670508
137.2086224614373 -37.31789656186355 289.5828612952746
0.9249937558660286 0.5495990427195458 1.9522267165041352
-83.01260676262721 -61.56211137566551 -175.20056508589508
-36.353895719190604 123.74778476965061 -76.72597357758627
49.67902948487725 190.55822000521854 104.84906302915714
60.53075329264745 -25.243040490202027 127.75194751167824
-1.8544982221263182 -175.69207763321626 -3.9139734208852097
-65.73308143410823 -21.741215475758025 -138.731615127134
-43.574170218273764 184.83703077274942 -91.96457674459533
45.96841532033469 139.94086544236077 97.01770194080422
65.29315680303911 -52.25154365078053 137.8031411643911
-11.193120256987122 -147.4417193350173 -23.623411799440028
-10.584931697935085 16.69914735256154 -22.33981183336036
-719.4099574552821 3778.7599273907745 -1518.3360213587414
28.61859176507252 77.21232417702313 60.40038549253918
32.403092268207 -29.06526399111226 68.38768588671886
-10.613107675274383 -63.790803120065036 -22.39927806799877
-37.16197388557095 20.0 -78.43144647989187
67.0601844431414 20.0 -60.02442554870357
19.10064183489056 -66.65798670130782 -17.096658222330618
-96.40008740574358 -63.882615088031926 86.28607149568276
-11.066345176786243 32.713127275071635 9.905296528426073
5.944516004588392 37.84807965172512 -5.320834729332246
14.43881397955158 17.412523285588538 -12.92393574404811
2.246975053284776 0.6839817489845501 -2.011228986553742
-13.164050270959363 11.629028811350247 11.782916524462463
-151.8562474329525 247.6916795792794 135.92393301383194
7.660174086381886 36.6521819751327 -6.856490970853032
14.056623745639046 14.870571610088192 -12.581843794384962
0.32264936275555534 0.4347912573718098 -0.28879793298925577
-148.14767088998641 -43.632265261298755 132.6044495014703
-51.833269707911775 122.262171079336 46.39507428087052
9.225536947226157 35.129562824456734 -8.257620527499551
143.36451102747856 -60.94553857536451 -128.32312481620824
-11.617952073859314 -120.38677236667675 10.399030439247433
-3014.6725726291625 -703.6954485754857 2698.3819220319033
-98.46696614284097 283.66643599571256 88.13609934608768
183.56649509134422 250.53250255196718 -164.30723400692597
12.561366492303215 10.100551716304215 -11.243464569449875
-61.209376383669614 -310.8748888635993 54.787467200292156
-249.3684911238315 5.178702841501227 223.20547660208305
-81.3845968253577 336.947741378464 72.8459623772264
202.15023092869956 213.47125880322739 -180.94121850083823
196.70588175220294 -186.45979949248633 -176.06807455530006
-92.25263518980906 -293.5294147484555 82.57375786548026
-3027.6044016271226 380.4770791028868 2709.956981261792
-40.93559600847172 292.24196061635774 36.640752710509766
2706.3152853479514 1942.119226746928 -2422.376581657325
54.46232287035781 -54.72603318913659 -48.748294856137896
-1484.1803540198564 -3550.7631026896684 1328.4644815769632
-1486.895521710811 -3557.295476320822 1330.8947817956591
129.6821215194878 -157.9327433346991 -116.07625169513749
12.875204432000462 29.14441791798236 -11.52437554817956
-2.881542872450301 39.16368534205809 2.5792198015715475
-14.509973929410933 21.72760781333323 12.987629799587186
-5.350318959211982 1.816428673848808 4.788979104304902
177.97673964230026 -166.8019484397763 -159.30393939071328
11.872276631878789 31.36256087503499 -10.626672006666478
-4.746059145494998 38.48326078018426 4.248116467231762
-14.552698511853452 19.135055643436864 13.025871843494699
-56.34738555746471 -284.5927933854042 50.4355822660439
12.561366492303215 10.100551716304215 -11.243464569449875
10.636410726247124 33.357766523091165 -9.520469546044467
-108.51965780039004 310.58467553672534 97.13409192504099
-14.354046880727353 16.55420011760615 12.84806216191282
-27.639622052387143 -313.986343264411 24.73975354905988
143.02797461661595 -60.75552557401389 -128.0218968236819
69.01456667681971 133.18151217784128 -61.77375970060405
-86.27842201461674 190.2192202466276 77.22634170603827
-105.66059934283423 -25.383253375909035 94.5749975391546
3.2223718932331775 -175.40214863294224 -2.884290035909557
114.66753733782683 -21.843541668702557 -102.63695387869635
76.0654895353394 185.35608192271525 -68.08492030484771
-79.52103120040925 139.2330079399054 71.17791662043781
-134.2733127637855 -65.38390612422748 120.18574854951711
19.92739308125394 -151.30492298522037 -17.836669140086332
3058.11864412123 -528.0235975598448 -2737.269758462928
1217.1419324443343 3674.4011557800986 -1089.4429520717222
-2249.5757043924946 2604.3349170820043 2013.5567849349968
-2591.5049374281825 -2235.0001459030914 2319.6118004662744
17.74582149449387 -60.5112821007171 -15.883981679173159
66.84410162660238 20.0 -59.83101351082441
269.40456490274727 20.0 166.32219487958142
41.4117056467294 -144.52263780395467 25.566329135356654
-13.958092413905387 9.364387282112821 -8.617302262308863
-12.650461369233845 32.726133031874774 -7.810010576212296
6.78851198481003 37.84807965172512 4.191021090112323
16.488821238090928 17.412523285588538 10.179697364394489
2.565998151408635 0.6839817489845501 1.5841693133644468
-168.589917211094 -43.40975350789414 -104.0822937623138
-9.356512004144129 36.16450068403152 -5.776426295924778
112.01441165285594 180.86091706862283 69.15429518045994
114.61288678881768 -36.66653038238007 70.75851479755956
-19.56069235173213 -186.97731217954288 -12.076177278134727
-3405.971734850803 -695.9762933969397 -2102.7434885622624
-53.617637164213676 145.72275080214644 -33.10190048423376
2530.8702573562687 2803.2392645089994 1562.4824186290289
14.344815778571688 10.100551716304215 8.856053520461208
-831.3612692204064 -3915.297351629287 -513.2571940068211
-3401.6244356526913 -157.04061577165828 -2100.0595980918497
-116.67338667241675 417.8864603243246 -72.03060483550318
288.40825112796773 261.7084359875864 178.0544934949465
2712.344270243042 -2472.900124175777 1674.518961691428
-6.10995148286791 1.816428673848808 -3.772098448313936
-16.570084400993647 21.72760781333323 -10.229866772703202
-3.2906612261240347 39.16368534205809 -2.0315542831713276
14.70321209095076 29.14441791798236 9.077316517000089
-8.10400890198523 2.92675073675564 -5.003168926957202
-8.112299448176518 2.9092844971001455 -5.008287258340278
11.632151776220885 6.024165800749831 7.1813371658787
14.70321209095076 29.14441791798236 9.077316517000089
-3.2906612261240347 39.16368534205809 -2.0315542831713276
-16.587035893986993 21.729375187055307 -10.240332109555073
-6.10995148286791 1.816428673848808 -3.772098448313936
13.103760019584465 7.9564090228617665 8.08986339344085
13.544033892749866 31.350948651350745 8.361675108878703
-5.419899511573595 38.48326078018426 -3.346081322404864
-16.63587638026059 19.13417078987516 -10.270484742191211
-4.008393278350916 1.0260352068421739 -2.474660250232036
14.359490781925723 10.09042440348202 8.865113421760912
12.14655686598495 33.357766523091165 7.498915242618686
-7.453778045654393 37.4776347733909 -4.601736147811775
-16.375266806761232 16.557721630005123 -10.109592307845519
-1.8363098942442408 0.5694768157980121 -1.1336819485595868
15.333483451183096 12.418869027745634 9.466426909548275
10.535368747297861 35.129562824456734 6.504216639940305
-9.356512004144129 36.16450068403152 -5.776426295924778
-15.859754265351675 14.034856145029618 -9.791330524099797
0.36845877179349384 0.4347912573718098 0.22747525332190008
16.05236804637776 14.870571610088192 9.9102444216274
8.74775735333146 36.6521819751327 5.4005996661760705
-11.09462396982962 34.56696228737127 -6.849483826273724
-57.04876272572878 -11.766872249919444 -35.220173181300474
541.6106768215691 -4057.0729755542307 334.3739797864887
1655.4101788670378 -239.77207398690302 1021.9999593346107
133.02011105580698 369.7310666487396 82.12257591817027
-247.59868258853547 269.07975141538043 -152.85990551898803
-272.95031866168944 -187.97927069300607 -168.5112355437687
92.45645420516232 -347.3159434097152 57.079806349002546
326.6448449981574 20.0 201.66060506735008
-81.32570965406975 20.0 299.1008701914154
-15.363722933420911 -177.9507380187117 56.50492222339973
4.303957322411466 9.364387282112821 -15.829156436209015
3.8967647476908853 32.713127275071635 -14.331577700622612
-2.0953691227047075 37.86633855673968 7.706378839349454
-5.089505177187985 17.40987625058658 18.71825568834076
-0.7912217662384321 0.6839817489845501 2.9099668456992167
4.635424452538379 11.629028811350247 -17.04823103737174
3.421011027751864 34.56696228737127 -12.581843794384964
-2.6946015232865963 36.63516390464201 9.910244421627402
-4.949724141847892 14.870571610088192 18.20416697661211
-0.11349761174673462 0.4547863608389804 0.41742315661916796
4.885334180662022 14.040952357451664 -17.96735264687301
2.885066752556312 36.16450068403152 -10.61074019422013
-3.248565500187188 35.129562824456734 11.947621141123049
-4.728057131363385 12.418869027745634 17.388916842175348
0.5662234624321278 0.5694768157980121 -2.082464832543524
5.04928950099149 16.557721630005123 -18.570349893274564
2.29836152734341 37.4776347733909 -8.452947238542581
-3.7453729933298288 33.357766523091165 13.774786918693898
-4.42320290466918 10.100551716304215 16.267719561836525
1.2359821879583286 1.0260352068421739 -4.545713151867046
5.124405721928939 19.135055643436864 -18.8466134161316
1.6712180646069208 38.48326078018426 -6.146429948533854
-4.176282984744895 31.350948651350745 15.359593912136123
-4.044658711335852 7.944088213677993 14.875504257309638
1.8839945778027993 1.816428673848808 -6.928982483567253
5.109361220418986 21.72760781333323 -18.79128253107245
1.0146705624074137 39.16368534205809 -3.731770057274661
-4.53371388190361 29.14441791798236 16.67415843088693
-3.586756938418905 6.024165800749831 13.191426499805596
2.4988592581490168 2.92675073675564 -9.190340690262188
2.4988592581490168 2.92675073675564 -9.190340690262188
-3.5904262549799473 6.009868272157247 13.204921565278541
-4.53371388190361 29.14441791798236 16.67415843088693
1.0146705624074137 39.16368534205809 -3.731770057274661
5.109361220418986 21.72760781333323 -18.79128253107245
1.8839945778027993 1.816428673848808 -6.928982483567253
-4.0405251817381655 7.9564090228617665 14.86030190242225
-4.176282984744895 31.350948651350745 15.359593912136123
1.6712180646069208 38.48326078018426 -6.146429948533854
5.124405721928939 19.135055643436864 -18.8466134161316
1.2359821879583286 1.0260352068421739 -4.545713151867046
-4.42320290466918 10.100551716304215 16.267719561836525
-3.749204576954719 33.371431757385885 13.78887877231916
2.29836152734341 37.4776347733909 -8.452947238542581
5.054455014547491 16.55420011760615 -18.58934769367689
0.5662234624321278 0.5694768157980121 -2.082464832543524
-4.728057131363385 12.418869027745634 17.388916842175348
-3.248565500187188 35.129562824456734 11.947621141123049
2.885066752556312 36.16450068403152 -10.61074019422013
4.885334180662022 14.040952357451664 -17.96735264687301
-0.11349761174673462 0.4547863608389804 0.41742315661916796
-4.949724141847892 14.870571610088192 18.20416697661211
-2.6946015232865963 36.63516390464201 9.910244421627402
3.421011027751864 34.56696228737127 -12.581843794384964
4.635424452538379 11.629028811350247 -17.04823103737174
-0.7912217662384321 0.6839817489845501 2.9099668456992167
-5.089505177187985 17.40987625058658 18.71825568834076
-2.093227713279358 37.84807965172512 7.698503132819715
76.62773604103754 269.996657270002 -281.8225949476909
78.10306594741256 -173.0023695102217 -287.24858459712897
-28.706040475805093 -349.8570927375725 105.57549048861733
-81.96328054857031 20.0 301.44573764065126
-309.8141306721027 20.0 6.856860498017463
-38.89757986220546 -111.52605351279607 0.8608880371177098
16.416609616377013 9.353506859895033 -0.3633352737840283
14.848262555914003 32.713127275071635 -0.32862434248227873
-7.976051080452058 37.84807965172512 0.176527356789946
-19.37327071760872 17.412523285588538 0.42877261412444423
-3.01487754220317 0.6839817489845501 0.0667257967886949
17.662857212558016 11.629028811350247 -0.3909174434367316
13.035446899081402 34.56696228737127 -0.2885027894706158
-10.267530500791484 36.63516390464201 0.22724277988978778
-18.860467181411092 14.870571610088192 0.4174231566191679
-0.43247217828156875 0.4547863608389804 0.00957154984931575
18.61511517492431 14.040952357451664 -0.4119929831221137
10.993280684618963 36.16450068403152 -0.24330520982518145
-12.378359126104934 35.129562824456734 0.27396000801491405
-18.015825488938155 12.418869027745634 0.39872939903124843
2.1553350595103278 0.589354588876482 -0.04770225230685144
19.23985179653677 16.557721630005123 -0.42581976324058773
8.757694553316053 37.4776347733909 -0.19382682676888882
-14.271398243310719 33.357766523091165 0.3158570806752574
-16.85420658394319 10.100551716304215 0.373020246365645
4.709596095610675 1.0260352068421739 -0.1042336040630375
19.526075226203194 19.135055643436864 -0.4321545102201047
6.368022248757639 38.48326078018426 -0.1409381815906126
-15.913341009881112 31.350948651350745 0.3521968450096923
-15.39604842652656 7.9564090228617665 0.3407480351280176
7.17878752154873 1.816428673848808 -0.15888218033626494
19.46874954120386 21.72760781333323 -0.43088576813871227
3.8663085646394104 39.16368534205809 -0.08556981701419127
-13.667006399975481 6.024165800749831 0.3024805747460444
-17.27529846696225 29.14441791798236 0.38233992553084456
3.8663085646394104 39.16368534205809 -0.08556981701419127
19.4886664205299 21.729375187055307 -0.43132657199358565
7.186131549703767 1.79782655484507 -0.15904471965118697
-15.39604842652656 7.9564090228617665 0.3407480351280176
-15.92962064262779 31.36256087503499 0.3525571486874515
6.374536849523632 38.50216948686476 -0.14108236387356973
19.526075226203194 19.135055643436864 -0.4321545102201047
4.714414096731504 1.006624501171423 -0.10434023690606874
-16.871448739016273 10.09042440348202 0.37340185275578885
-14.271398243310719 33.357766523091165 0.3158570806752574
-18.015825488938155 12.418869027745634 0.39872939903124843
-128.12123637235965 2.888242229858921 2.835601600007642
-133.49991992560217 318.73394494309434 2.954643564644815
20.514146886712897 37.564274562643725 -0.454022684933317
256.8775777581487 -146.59014457654283 -5.685259455193927
-98.61937443191854 -313.4659165141064 2.182661234380895
-311.8236385705535 20.0 6.901335278103994
-75.07485597747598 20.0 -234.579317076253
-16.487676557893693 -162.85726993551387 -51.51748687050734
5.000067217272463 9.364387282112821 15.62323813867899
4.531647685085072 32.726133031874774 14.15961183483816
-2.4317804484153576 37.84807965172512 -7.598354861177549
-5.906624779322314 17.412523285588538 -18.45587299394624
-0.9191917388122706 0.6839817489845501 -2.8721116750115043
5.385144904339851 11.629028811350247 16.826454044689818
3.9743156840146683 34.56696228737127 12.418169130838018
-3.130418759043096 36.63516390464201 -9.78132405447885
-5.750278537225158 14.870571610088192 -17.96735264687301
-0.13185439474004898 0.4547863608389804 -0.4119929831221137
-57.644476418538844 -59.56115813695284 -180.11625510858065
2.725087080820133 -60.49504208125417 8.514822413830467
1212.0277353932706 -691.2469022451206 3787.1086763234266
3.8569513458274036 45.24646578007976 12.051451859887344
-901.7540910724103 2788.3373265106047 -2817.6259028448562
-1065.8532490245314 -2033.3531839513607 -3330.371054387282
300.8883539441731 -3955.9724853623434 940.157442401197
1236.943597594878 -159.71597051546252 3864.960919441583
405.31806217287135 3878.633591815316 1266.4590958617114
-79.78946056210506 206.67230183610116 -249.3105970680344
-982.5501634763056 -2500.954606687228 -3070.081764933164
29.35329753980181 -223.86447907946706 91.71747852421606
79.35971249180264 43.0978071738639 247.96780383141967
246.34764122662395 4024.925966988903 769.7392248028403
-69.65619954782413 140.93551164676924 -217.64815273116344
-55.20301981088495 -165.15299527395365 -172.48766606584468
2.9030176930862677 2.92675073675564 9.070785405286248
2.9030176930862677 2.92675073675564 9.070785405286248
-4.1668688698949845 6.024165800749831 -13.019821898020323
-5.266983953432457 29.14441791798236 -16.457247673155077
-26.71321003098655 127.0909925139807 -83.4682462509602
35.25702832616361 190.03731793713976 110.16430893148716
43.26133933565954 -25.42287875665233 135.17462411393413
-1.4075035109105276 -188.63890712821038 -4.3978933835168235
-42.913843405685455 -18.28049115540321 -134.0888363774308
-33.955836421620404 200.44260141270516 -106.09859739093527
28.920007632119013 125.99979820979216 90.36361844260954
96.11726153045255 -129.41006069398694 300.3285357725864
-16.314595470612264 -322.8370932439821 -50.97667673208398
-103.42787011280859 -25.30797461097064 -323.17130445102896
-43.0157705714066 335.7147266066282 -134.4073185725023
80.35627898202462 245.66288629132268 251.08168108970557
78.73251622328156 -147.47145877618357 246.00806284454936
-353.3614561008037 -3898.970082664301 -1104.1151924163
-76.26056929356359 20.0 -238.28420357006794
3379.645690842208 20.0 -2299.0188678590034
20.653595061863253 -64.44287162683598 -14.04969901578955
-13.577047673795372 9.353506859895033 9.235846484279909
-12.279975787056896 32.713127275071635 8.353507619983718
6.596442767323568 37.84807965172512 -4.4872592484834515
16.022298530381086 17.412523285588538 -10.899239150313498
2.493397667220706 0.6839817489845501 -1.6961447460451164
-227.9852467793118 -110.64709611666561 155.0879683510589
-10.780720753784646 34.56696228737127 7.3336327796815866
8.491567647580993 36.63516390464201 -5.776426295924779
15.614151259369766 14.865324113014115 -10.621595171400918
3.8339078827781217 -189.5086941290324 -2.608032724857546
-97.35644502304869 -17.683737086867048 66.22715056260519
-9.091785663075596 36.16450068403152 6.184727244805342
107.65124343725431 179.09644631467086 -73.23023253039737
109.88395893306671 -35.91035619333169 -74.74904708108915
-19.17154476871107 -188.76631175660498 13.041527775737535
-168.0156147380263 -16.347290225986832 114.29336200073475
-107.18360245787328 278.6421747462774 72.9121176943084
2434.25118691652 2774.931731667482 -1655.9100922897728
25.517911186389412 1.8771737046817343 -17.3586714858385
-801.8882830916668 -3886.3074627100223 545.4880367306756
-3341.709667791361 -158.9864087538397 2273.2127210780677
-1095.5157214237702 3864.7735098185126 745.2293950262512
2746.82318126046 2389.0794271651903 -1868.538568259382
2635.6096885275665 -2472.9062845803683 -1792.88509995463
-1230.7766231554601 -3749.5147927979046 837.2412192264634
-731.8209111486663 98.52176341143256 497.8243983336843
-688.1258558310765 4144.093702387062 468.10064448591095
191.0759056303517 142.2966500683206 -129.98022645621015
2384.4095616905033 -2928.243329726527 -1622.0051071873804
-105.21914839487239 -208.12655614039346 71.57578916492466
-1645.9413418575577 -3548.579822732732 1119.6588478411493
55.60170691704085 -48.74966623743677 -37.82330604471982
14.28721010890146 29.14441791798236 -9.718937608884374
-3.197557652302714 39.16368534205809 2.175152677581107
-16.101262492495163 21.72760781333323 10.952954733362064
-5.937080962373789 1.816428673848808 4.038725476309437
198.12696575696646 -167.3995076851893 -134.77674116584998
13.160828855002057 31.350948651350745 -8.952711799435074
-5.271940597162588 38.50216948686476 3.5862608130641864
-16.148672620186357 19.135055643436864 10.985205681556133
-62.62454819354608 -285.06835567433757 42.60062475727429
13.938954000947557 10.100551716304215 -9.4820348574502
11.802891026162495 33.357766523091165 -8.02896860992231
-120.58016346467119 310.9690941020736 82.02518732835561
-11.238239977964263 -102.37750995758519 7.644862247210485
14.899649029972634 12.418869027745634 -10.135551882614045
108.80850215890199 180.80674472091377 -74.01746287329152
-63.470430040744624 132.84557817680934 43.176039609771514
-161.9299991109723 -42.678208017248814 110.15359516451107
2.7310830728245756 -129.2434522789748 -1.857831290163841
166.68126415916902 -34.81273068728776 -113.38566414191955
63.245890801241345 143.900062207413 -43.02329580304895
-119.38752139101663 181.31699924377904 81.2138873044022
-3021.6189663354166 -1711.54074265557 2055.469611477116
521.0244578071627 -4016.306790744159 -354.429182431893
98.01876747997841 4.170730688306346 -66.67769833132964
116.73510507472812 335.8516683942374 -79.40956942188336
-229.29321541213554 257.3810731709539 155.97771977487758
-226.68188844843635 -157.7534577719927 154.201353105448
80.09776572310832 -307.4822290402084 -54.486857947788884
3372.6341836401316 20.0 -2294.2492592005037
3149.82020191558 20.0 2577.67882167358
4.291684855888579 1.2530304303356417 3.512132265706293
-12.694785413375163 9.364387282112821 -10.388872192084845
-11.493746004577948 32.713127275071635 -9.405992646716143
93.92847934972771 291.52817647141103 76.86707064249327
15.011806866259292 17.40987625058658 12.285023954915795
2.3337570018377423 0.6839817489845501 1.9098474239612508
-13.67246799090379 11.629028811350247 -11.188966011053349
-10.090481303789295 34.56696228737127 -8.257620527499551
127.5402909747888 286.94545371684364 104.3735470221009
14.614449715887334 14.865324113014115 11.95984377144645
0.3347681489667007 0.4547863608389804 0.2739600080149141
-14.409592022019186 14.040952357451664 -11.792196951916983
-89.95015618787284 190.86414661662988 -73.61138025297508
62.034466847680115 117.95134356478202 50.76636796913989
142.52427672715638 -57.4787707548042 116.63580336125548
-13.551389605846826 -137.660557171865 -11.089880612866503
-149.06138867652916 -14.452716555340032 -121.98549761255269
-68.42268244511513 196.40342166166207 -55.994211781868856
125.38438408316554 171.60894188279786 102.6092445604373
2691.144154398691 -2021.9903389648575 2202.3178620308054
-754.0006376703334 -3904.281776161137 -617.0420375325548
-3137.2573305818246 -159.5301512675052 -2567.39790235103
-1022.6593804067785 3854.591171271066 -836.9009205849995
2553.0497835044366 2372.5784573098763 2089.3073051012466
2478.7450482081067 -2484.9129131299555 2028.49947155985
-1141.4331301976526 -3715.0171631054773 -934.1003033372277
-80.9097903072929 29.27517729347599 -66.21312950317693
-619.5011007454139 3986.784841840081 -506.9733397556395
72.4233630049906 69.52485775733872 59.268198514572084
2238.05122212745 -2936.5716401317063 1831.5258863315962
-72.43863012143399 -147.7981643703208 -59.28069247302095
-1559.44000893355 -3592.315286830086 -1276.1793458095945
10.579359006666614 6.024165800749831 8.65769723674439
13.372466440759032 29.14441791798236 10.94345750812131
-2.992832895427897 39.16368534205809 -2.4492070901891028
-15.070373480445658 21.72760781333323 -12.33295237983145
-82.59258673889964 -250.26088594576737 -67.59025849622313
11.917776199222482 7.9564090228617665 9.753000914623186
12.318202144058773 31.350948651350745 10.080692468898386
-4.924317093455062 38.46435207350376 -4.02985156907839
-15.114748157983827 19.135055643436864 -12.369266727691423
-56.53578241411767 -274.24688726289463 -46.26647860947415
13.046507552991196 10.100551716304215 10.676706624618674
11.05850825412389 33.371431757385885 9.049812592040011
-78.37469433531788 222.0611259069981 -64.13851483345834
-82.04585046487551 1.03665573153717 -67.14283279435746
-1.6701107406814943 0.5694768157980121 -1.3667475633962058
141.58267489892887 -56.96689899606375 115.86523649220213
71.782950260814 133.34402922096842 58.74411197566743
-90.24614508798295 191.42639011868314 -73.8536049738656
-108.51049296581405 -24.874219638668343 -88.80037009008788
3.5480286683325004 -187.14927191990603 2.903555685968808
109.88094691853152 -18.605835973996072 89.9218912892504
85.5120005216023 198.97904735050648 69.97938250869788
-74.60762518991011 127.70610734728989 -61.05570574169106
-2908.4311692302554 -1760.6875494603382 -2380.1363089425918
493.7155452051499 -4066.3802334531856 404.0357935454147
124.40545925242373 -1.4648068308568298 101.80813413429964
109.30847042071062 335.98861018184647 89.45340088353093
-203.4481230119795 245.03210708637027 -166.49328672102925
-224.6100396156761 -168.17690225663299 -183.81129878476455
902.2241137040198 -3921.102054923526 738.3418230931769
3183.8249584632335 20.0 2605.506867457192
-1599.8513041269166 20.0 3802.8231259399117
-19.052924396712925 -146.09527361440223 45.28852233060828
6.367618687613739 9.353506859895033 -15.135736389976215
5.759293565421286 32.713127275071635 -13.689756481220792
-3.093723558034926 37.84807965172512 7.353735601184979
-7.514438336803797 17.412523285588538 17.861709905122517
-1.1694004442579056 0.6839817489845501 2.779647734409439
107.02993136643016 -110.77555091751447 -254.4085797961968
5.0561447957672545 34.56696228737127 -12.018382150794631
-3.9825347998323526 36.63516390464201 9.466426909548277
-7.3230177678677135 14.865324113014115 17.406706015415423
-1.8036753166522899 -190.1585349917155 4.28730981945569
45.15038016771086 -17.263098429745988 -107.32179259650037
4.268398497570964 36.18103725762133 -10.145920733644852
-49.2186029798872 175.09543149101654 116.99189865680286
-53.47275693626151 -38.012132657250795 127.10396032458245
8.389148482153221 -174.78229839590307 -19.94088311368789
74.01230826872256 -14.139301951831548 -175.92617311525095
33.8126684431869 193.97175073666855 -80.37221782661949
-54.96466988508178 152.6347640645758 130.65021556032082
-56.448616039 -65.47958387573838 134.17753384122156
385.4238975663752 -3983.3124642995945 -916.1469613922526
1585.7561727834952 -161.09899663240182 -3769.319205108235
517.2535376803257 3890.6500749107704 -1229.504085780293
-30.101166991264414 75.35547030280205 71.5500332167611
-1246.4161876981066 -2493.7161312917615 2962.713028952973
13.136211248722303 -65.78367178572505 -31.224581806454093
35.64835713968841 28.155546040538294 -84.73562298125793
7.07558938658353 110.41730618677433 -16.818572375786424
-31.361257584968858 62.798682327129704 74.54525010857947
-78.2838719895533 163.96254312544332 186.07961753824114
2.4700068054172326 38.48326078018426 -5.871170012262882
7.5737076297464245 19.135055643436864 -18.00259214666517
1.8267421112095312 1.0260352068421739 -4.34213925238943
-105.1661023888721 -139.25199412901915 249.9782856054984
-5.535541398379089 33.357766523091165 13.157900856193447
3.3969047690868646 37.4776347733909 -8.074392900875699
7.4626882595983615 16.557721630005123 -17.73870072929577
8.390432666531549 -174.81211505552076 -19.94393560115299
-45.56264924241481 -29.430525065640097 108.30175015089924
-4.801275825841 35.129562824456734 11.412562340903627
43.615311576865906 185.34093103763598 -103.67295703152585
53.38270715289103 -24.057327174114405 -126.88991330796047
-1.7813664073554156 -187.55917154098307 4.2342818686893855
-55.062956798249054 -18.60845972253312 130.88384211386713
-43.435093095665174 201.42964950116473 103.24458034035209
36.51803811572052 125.20997825968405 -86.80284192798985
117.23110123767886 -123.23994842654739 -278.6566112213401
-1.1694004442579056 0.6839817489845501 2.779647734409439
-128.8716565505666 -24.37489477278134 306.3260407667252
-3.3785676707951753 39.491381103034854 8.030805886716077
98.87130979164664 238.24960491353156 -235.01565576610344
6.361111157018324 9.364387282112821 -15.120268085029894
-133.14482451782794 20.0 316.4832984599927
-271.03343592490444 20.0 -30.10260139490827
-59.306506118556285 -181.7193104181378 -6.5869368025361945
16.303598798923822 9.364387282112821 1.8107756125059429
14.761133603561346 32.713127275071635 1.6394601628712309
-7.9292479631220605 37.84807965172512 -0.8806699069460423
-196.8024622870674 -6.439909117032119 -21.85806358373253
-2.9971863732374726 0.6839817489845501 -0.332885521640277
17.55921234241314 11.629028811350247 1.9502315946681577
12.958955469361008 34.56696228737127 1.439299434246282
-10.217723314180843 36.6521819751327 -1.1348417254890595
-302.0683051975551 -62.6375839225894 -33.54952039170887
-0.42993445053911744 0.4547863608389804 -0.047751102539628554
18.50588249689161 14.040952357451664 2.0553744683341852
10.928772596526997 36.16450068403152 1.213815129805612
-124.36648802782604 172.90532086220773 -13.81288918546406
-79.99514752349722 95.31593881536261 -8.884741586251835
8.70630478642706 37.4776347733909 0.9669745052452173
19.12695319145486 16.557721630005123 2.124354310222315
21.28863856793104 -172.85415440729173 2.364444072606076
-128.1924097516347 -34.2622842428416 -14.237819033056159
-12.305723458568675 35.129562824456734 -1.3667475633962058
110.5902344128356 183.57151766352717 12.282815709945996
139.3100116147078 -24.858979107613237 15.472606675434374
-4.55818483699452 -187.21925478204113 -0.5062593873856169
83.59354855453283 113.96622066805068 9.284401619068984
-31.523126216544107 -55.31882704557367 -176.23467225836916
2.5862210084626307 -112.2468242910443 14.458648824459397
33.458605444573365 -13.989637674875247 187.05525347456845
13.06893020335322 168.09054732543242 73.06377595083451
-21.72247121886004 135.44389932181502 -121.44266941038657
-25.87088110405373 -66.27964158869179 -144.63496485368535
9.449344552843026 -196.1576183494686 52.827950149585895
723.1064298101419 -161.87368592567142 4042.6328210629067
5.705164404051672 114.0235439687634 31.895560485383484
-582.4683618197394 2379.052272013844 -3256.375022611086
-12.367640119659857 -34.9323277458525 -69.14311062060213
5.845616093037189 -64.0722768373814 32.68077630460342
15.542776717943607 27.831232962536607 86.89417864381151
3.0072349504362585 104.6338921960765 16.812389172743313
-13.461717462637141 60.459956516904036 -75.25971087910426
-10.754621031507538 -42.444456128107525 -60.125290230763206
7.419730972959598 -55.54148651000702 41.48109699787762
7.507223754374844 -56.43226473243716 41.97023825727456
-13.53486205463066 60.67979674306525 -75.6686364757884
2.9992240164705373 104.40843707440523 16.767602868484207
3.4288116095215244 21.72760781333323 19.169275473781486
1.2643190023108426 1.816428673848808 7.068361287255192
-2.7115326268851656 7.9564090228617665 -15.159221853008544
-2.802637544105021 31.350948651350745 -15.668557288747797
1.121528045240927 38.48326078018426 6.270067445844616
53.48512974250193 6.547571301453322 299.016482252297
0.8294481232403069 1.0260352068421739 4.637151694613884
-2.9713782687148975 10.09042440348202 -16.61192712123142
-2.5134606553546033 33.357766523091165 -14.051871371762886
15.253528315824397 192.84531494053186 85.2770929208231
22.558213316469246 -2.9162419363086087 126.11500849417264
0.3799836217905037 0.5694768157980121 2.124354310222315
-3.1729244582888185 12.418869027745634 -17.738700729295765
-21.798379699437454 171.28015043093615 -121.86704693259978
13.716265861068566 134.51577210937933 76.68280112920488
3.2868554370841316 14.025711826396552 18.375648618605343
-0.8075202567670479 -187.21925478204113 -4.514560732832564
-23.267063442860483 -15.929612466216007 -130.0779393547324
-19.454766729580086 198.97053831526114 -108.76473402092827
16.993517093070903 127.82532545296655 95.0047560271029
55.104211809179496 -128.28394027321207 308.06819861507864
-9.144473352656902 -312.66036751582567 -51.12352287683594
-3.4119959995557374 17.412523285588538 -19.07526533370884
-24.245459701853928 328.0551159530234 -135.5478075035339
2.615057270380474 32.713127275071635 14.619862186780692
50.10160225063365 -164.48843912480308 280.10037429681006
-17.48159776644464 -315.6330853748451 -97.73344279873793
-61.096479365960235 20.0 -341.5688514912986
315.94736088307315 20.0 -158.35369667621003
4.957744076548144 1.2530304303356417 -2.4848351304523972
-14.679988276899216 9.353506859895033 7.357650984369907
-13.291131051895565 32.726133031874774 6.661551877480441
7.132309233946796 37.84807965172512 -3.574733239982103
17.32388073210789 17.412523285588538 -8.682777241878282
42.10647197001859 -281.6855761005144 -21.103880949691725
-15.794402308149627 11.629028811350247 7.91619839867051
-11.656499858031502 34.56696228737127 5.842270173315749
9.181385858987623 36.63516390464201 -4.601736147811776
16.86532381471468 14.870571610088192 -8.452947238542581
4.150105468388249 -189.74863537063845 -2.080044412077385
-97.20199170645327 -14.797180505029054 48.71790879336895
-9.830362988827911 36.16450068403152 4.9270052916377916
11.080245431608398 35.14504063808789 -5.553449850857357
161.22392682555554 -55.869476967855064 -80.80588087244658
-14.427868009180019 -125.30652120359744 7.231287604442496
-171.38573245078481 -14.290726984987337 85.89900613597959
-65.39007812859525 165.93601536615506 32.77368916349762
126.20707911139925 152.10181992708164 -63.255339332912506
3175.7876747225887 -2065.9884495208844 -1591.7136219953463
-874.8713810529041 -3921.634947030787 438.4879712833542
-3633.3423794916152 -159.9854084250006 1821.0413135742665
-1186.7039629495391 3871.892637883719 594.7793292785673
68.08543416171399 74.31037017121989 -34.12460910949722
2855.0461160295054 -2477.569710856427 -1430.957060032684
-1330.332725874944 -3748.3056550626616 666.7664650302282
-74.11624852164564 27.354925744436038 37.14727005274396
-14.911543010732208 102.65380808400707 7.473706861471853
66.79314678342939 59.538498547675125 -33.47691107857394
56.00520748696522 -44.04577933047686 -28.069965876249967
-81.07216366603957 -142.56702559350066 40.63359408407036
-82.52244733516613 -145.47515449614022 41.36048029572738
12.221250210628085 6.024165800749831 -6.12532462195208
15.447841235254286 29.14441791798236 -7.742501024324152
