# .PCD v0.7 - Point Cloud Data file format
VERSION 0.7
FIELDS x y z
SIZE 4 4 4
TYPE F F F
COUNT 1 1 1
WIDTH 847
HEIGHT 1
VIEWPOINT 0 0 0 1 0 0 0
POINTS 847
DATA ascii
-134.27472546881376 196.01228049396306 -207.09876319183837
53.57480280383841 305.76728406232706 82.63115310929102
28.90271378531392 17.647174379435924 44.57813082043079
43.2665123912058 -300.3348756843822 66.7321506155244
-155.86501063752507 -148.23998425871736 -240.3985620913543
-132.66284692439206 248.18891487042234 -204.61268063386117
81.72835786807462 319.739201371995 126.05381819312937
179.00347510982598 -38.85503672401472 276.0861969581615
12.354101312908911 -184.46277388511675 19.05436107441036
-62.39067646808093 -28.247791077641338 -96.22832507107003
-70.45478346579935 178.25290547177275 -108.66600892887108
63.348440780810336 191.17834151483612 97.70553386001377
105.82343646093685 -42.254521253916735 163.21688784878756
-2.464662261381031 -184.6998717451774 -3.801374415292784
-102.81903593028271 -31.38873884645149 -158.58304754966227
-59.53499200231475 197.26022223094753 -91.82385715008603
77.1953672339747 178.53027602358625 119.06235535003219
110.1147582060255 -75.9043543137479 169.83561242828793
-59.89825210614249 5.298367599139372 -92.38413175096122
-144.79121866320574 20.0 -223.3188874636978
4.506408368124319 -3.4265200300204732 -5.264536342618284
-185.41325298700264 -164.86381369131675 216.60593737079293
-163.9934889669332 235.86955141855648 191.5826556523412
87.81650599092973 322.1118423707866 -102.59016704769529
214.08008277484623 -23.95798675997336 -250.09548268436396
33.240012744425385 -307.4139195918925 -38.83208995436846
-195.46748656801216 -122.42211952780977 228.3516278987086
39.91377099471349 119.4195678065664 -46.628596613420775
135.79850301705767 -36.78054209006722 -158.64433402515292
1.6190233358786779 -92.4924521063119 -1.891396982921023
-126.45117455283717 -42.23318451043958 147.72447359830898
-47.35454585720586 127.04950913358368 55.32115762451622
84.81428361463108 179.37504696003168 -99.08287087799093
78.33006798247929 -30.67530411530437 -91.5077942182063
-132.685765281275 -16.496954502943133 155.00793013175968
-101.95275074000308 332.8094325938352 119.10459897447144
165.50904889897885 258.16453590556966 -193.35318324103184
193.93728171584283 -155.12655697781008 -226.56399162657704
-53.87253083423601 -313.6797358330226 62.93568475768361
-222.3430845128775 4.857943425384462 259.7485965159206
-68.9107677636476 327.50284239155656 80.50385399058958
170.91239521998406 207.42709637557718 -199.66555237293207
127.37388902453078 -133.1846205818513 -148.80241937536084
-77.11830136439258 -280.31260919630165 90.09216809678925
-159.74657766279273 41.79348536696884 186.62127242247877
144.8037677754992 -207.65239901540747 -169.16458423839487
189.62666816500882 174.31848386193042 -221.52818931050908
-42.4395105307451 343.4006684425476 49.57924965975372
-213.69068190315193 49.15282954571007 249.64057161696434
-71.86132102175667 -259.84097723269105 83.95078857557291
26.81070277303926 -12.24355763393428 -31.321155916136043
132.45300304260527 165.25149995439466 -154.73600953234538
-12.667716539857002 76.52757862134101 14.798848363097159
-211.89019852365269 5.569808115773252 247.537186967517
-51.93580857161667 -301.6839197284993 60.67314130750773
186.51848675530903 -148.42733954592796 -217.89710826899537
158.4151934594667 247.95660588741202 -185.06590505409372
-97.55296069663628 319.31008297346676 113.96461770978293
-214.50054558135105 -39.00117948857204 250.5866813385341
-14.867077035098657 -185.84427911407025 17.368214543849646
73.12125033044573 -27.30548170359642 -85.4226799562212
84.2747735071475 178.36125016719083 -98.4525972019194
-46.418208192924965 124.93282771408902 54.22729678016029
-126.79800639762138 -42.40387845825682 148.12965411070087
2.9656674347489718 -186.05953878094516 -3.4645914695152156
120.9579938152952 -30.575376799969305 -141.30715690905444
71.9090105647654 199.11519191443193 -84.006501088027
-96.49863083776921 185.78767820665513 112.73291445395402
-129.8552417381205 -74.6155244785645 151.70121825740375
22.435855062301965 -200.9930333608504 -26.210313115135474
83.9102477769007 308.67328828007584 -98.02674610323115
-156.63759352556184 226.18676547861702 182.98925360792816
90.01640172174409 20.0 40.236891294800444
56.49646870367322 -189.19891976051028 25.253645183427473
-254.35905532542503 -160.64220987081524 -113.69725364733188
-14.231717247074311 33.34390648002404 -6.361508001386158
80.5644844812659 8.216723688795266 36.01193051811675
-96.61826865641396 -30.144472424694243 -43.18789352452946
53.340023689381816 114.63748999868466 23.84272970037302
195.97861805753305 -38.36790995497599 87.60148373028511
2.2157947144861896 -89.663144965707 0.9904493998101881
-177.2129798967096 -42.12345268684278 -79.21333525609188
-68.61247664288956 130.4808481534676 -30.669441472243417
119.01375656097778 179.2976578918759 53.198567080394106
107.72149592250388 -29.63992714876119 48.1509818060199
-20.65334290017284 -183.6875407350565 -9.231943259822092
273.59296437364804 -155.97725125487446 122.29471691785588
-77.06864088968295 -320.0173312345224 -34.44930553102876
255.16093378641406 219.31220731640323 114.05568939736546
249.49850889521676 -193.72907691091248 111.52461316620968
-114.2022215504437 -296.77548451460734 -51.0478344641489
-306.5771414562938 49.791735146242004 -137.0384827465035
-60.839963276991824 350.23293886884653 -27.195166013447047
272.85961566031233 178.16802654556184 121.96691362984083
156.44083985843503 -155.1876178449231 69.92829025658119
265.62962259121167 173.97702989363745 118.73514209021829
-59.384383995883596 342.3322072137576 -26.54452919410429
-298.8474653598963 49.04060131435799 -133.58335533765444
-110.4500257105545 -286.3675989320175 -49.37062127589996
236.43892244932655 -182.54178217204645 105.68704190000118
244.29384903939308 210.8236718032192 109.1981556669137
-97.93723930370584 331.29403808099585 -43.77746695271611
-302.22644156535205 5.339303762950035 -135.09374117474795
-72.58319935363045 -300.2281168031931 -32.444335102936975
262.02039056335076 -148.533676330561 117.12183302670266
221.74064635629625 247.28017678982326 99.11698437643584
-136.82462306668864 319.0240040411146 -61.15993729458894
-300.74392511359116 -38.92370621579467 -134.43106357187452
-21.00203308478589 -187.1263954776314 -9.38780606688262
106.6948556207661 -29.166833553561688 47.692078612493276
122.037668078729 183.34510615642364 54.5502407387232
-64.1502522601122 123.29570692869862 -28.67484899810934
-184.09073207267238 -44.534504699761314 -82.28765683931002
2.5440531164407942 -105.90916653278458 1.1371792999552837
175.40817513906052 -32.24145712098926 78.40659635681502
66.38967343392488 137.79057490125803 29.67585930968025
-101.85310111984819 144.64252948498546 -45.527838031851566
-187.59339020660408 -77.36017539003481 -83.85332789349764
32.663924677081525 -209.1739352083393 14.600614569731263
-285.54983552463136 287.7365095494882 -127.63937984067783
-192.71691353341492 -116.86483107754765 -86.14351776116776
109.30693486961887 20.0 48.859665260917424
-11.799823574346544 -281.38989952662445 88.37071136380838
36.68622156392504 -159.71737398230331 -274.74881098244543
33.175160881106784 234.56247285984068 -248.45393223046963
-17.824503978789597 321.29019164513164 133.49047859810054
-2.38860757368566 -95.59970001886484 17.888653090923146
10.171400458170023 105.85938948203537 -76.17519773844828
-14.754907325027892 -10.31216684841489 110.5017925229437
14.051186406533477 -13.977239934264091 -105.23151727034207
15.311179460985144 190.06212279752447 -114.66780094304247
-10.747516426149616 119.22826318935253 80.48981969848253
-24.87242086815031 -59.060919827274674 186.27342278549253
1.8776701199061423 -107.73456980223216 -14.062163146525025
27.105580272358587 -16.632532730303545 -202.99790039274288
-33.11747547267751 254.1469570229213 248.02191724769577
11.013997281238408 -315.18406552250576 -82.48553620904373
45.04147642840714 4.9287317103205766 -337.3226123065125
14.740652848930688 343.1876145830275 -110.39503853760728
-14.071628173580757 76.2650655424091 105.38460883854387
8.635793849237995 343.3320516663868 -64.67480135105534
43.27054505311947 49.004370153055355 -324.0598321958933
15.96941326679981 -285.5491056958531 -119.5974161442401
-34.32713111394978 -182.837481592457 257.0812162152563
-35.44492983832328 210.98043682295653 265.45258446598154
14.203358984849025 331.40749032107885 -106.37116134307597
43.49183279493897 5.447255897477607 -325.7170904622961
10.555080727853476 -301.2180627924013 -79.04863886700025
-37.956018512128594 -148.40202126387248 284.25851753808394
-32.146245998516 247.28017678982326 240.74822887529112
19.83459083783233 319.00612410784254 -148.5443312694941
43.55002315617065 -38.856797480214205 -326.1528871150308
3.0173919223795176 -185.26782369479469 -22.59771673398548
-14.818780473093085 -27.10383525318352 110.98014844886097
-17.040789965966443 177.33197556071886 127.62112263844566
9.498023081617536 125.49507121614229 -71.13216998406646
25.69348995463998 -42.12954889926483 -192.4225366934047
-0.6026005141123713 -185.71962202200322 4.512968839303678
-25.74094669228228 -32.88165176402685 192.7779475720532
-11.257162647136186 157.7697896573191 84.30663939995455
19.580144490421546 185.28100125752914 -146.63874305599754
21.284949381260883 -56.19938786353504 -159.40629165456335
-3.3648743614946195 -142.84737228298548 25.200066687572246
-76.87874067066558 20.0 12.002305315752915
-97.1069828504514 -312.2480826852842 15.160337517175535
273.6791213538235 -159.59224912679875 -42.72677133340385
248.3796172449884 235.18674918639155 -38.77701396221881
-115.32704589952114 4.414257908486247 18.004852888778718
102.56472092179145 -29.18534324502287 -16.01239932378401
-218.0448435473085 -152.589895046294 34.04115054370227
102.27845355595655 -242.1410610006369 -15.96770727632442
274.1493593728817 44.61598120113064 -42.80018487044381
54.51381694935985 293.4084458110917 -8.510694494283506
-240.9480545831738 149.05556765987276 37.61679875496995
-190.91830700195882 -177.54895256372333 29.806156955930778
132.73178682433073 -220.82451236993683 -20.72208020934606
132.95319900136582 -221.22623588201319 -20.75664706783279
-39.89843030094493 -21.28411381108426 6.2289410299088175
-241.67288110379297 149.44379614437022 37.72995863669451
53.25123535788966 287.07609761110734 -8.313580316622991
69.35419785686017 26.22734130974898 -10.827574051623259
99.95592267759251 -236.18838291944166 -15.60511386670025
-40.86784242814523 -12.348284511996347 6.38028560483226
-264.7963780492139 211.1197835071675 41.3399978736239
105.81516462457792 330.77404864728226 -16.519858439167198
326.34315148215103 5.372485771513837 -50.94867719767853
78.65051010758869 -300.6260362694435 -12.27891387548684
-282.1648022505967 -147.69817302272992 44.05155542906719
-239.9202803795042 247.22551585264438 37.45634269546006
147.39174082168338 317.6383092125337 -23.010791526104885
324.98297806854293 -38.83390764962088 -50.73632698941447
22.511240523866128 -185.13861816978465 -3.5144537936855844
-111.9092003679193 -27.650607359110815 17.471259007889095
-127.4067993957791 177.5718816720018 19.890743426739146
70.52670340145882 124.93282771408902 -11.01062556115528
191.36463629266694 -41.98628790734679 -29.875837863444477
-2.785210509496855 -107.36880908588817 0.43482693150279955
-154.98745977003352 -22.65165621811066 24.196634804954716
-84.40023871093814 158.36542212449302 13.17656122998428
108.57616302076744 142.77229545218233 -16.950905376698724
147.3156899528717 -50.64585864016996 -22.99891846810415
-25.227651055524966 -143.54887473609142 3.938539675939589
-162.13948470724117 -1.9121557461873024 25.313208596010565
-21.636628596325465 -54.028954003994286 3.3779094213979195
-77.52096122632595 20.0 12.102568758179846
-34.584314215204124 20.0 -72.99121940524101
-9.787184898988437 -57.2701180523557 -20.656143587998866
35.90603216858418 -34.36946982228361 75.78074429003973
108.10853572541318 236.12316367621779 228.16626640651734
-57.82985429818471 322.14836018081564 -122.0516201936493
-139.95962012943272 -23.64563662974261 -295.38892334752387
-21.82417375651298 -306.47528954900434 -46.060565061007665
127.81965441950875 -121.44158121466356 269.7671661777487
94.39559970265661 266.2971551964488 199.22470880619267
-74.4080916178245 301.4788859158864 -157.0404810402237
-91.3131623416803 -37.984842668568255 -192.71913346594138
-1.0158337558822101 -87.19374968751121 -2.143947226868867
27.173186429991755 113.29107990686836 57.34981472551774
-55.10844911273992 177.27006430619423 -116.30801395223841
-51.80542368498286 -30.900217463841834 -109.33688096407828
9.694709722313805 -183.8565018062235 20.46097198886884
144.01573471761097 -40.16151782403324 303.9494733123504
65.28138432173587 324.1913047567258 137.7782949939451
-105.76870491465081 251.14743809522972 -223.2279841836356
-124.3825089859881 -150.57939352064446 -262.51296894530697
34.732659957169346 -306.72099785005884 73.30430748708756
143.7113914364176 5.136229870539559 303.30714780391725
45.61152336649607 329.11008245939865 96.26447090246407
-98.38702315838542 183.86008840839935 -207.64872622008278
-94.05886388706728 -151.79520285394062 -198.51401789457475
44.12462169587119 -240.95982644389977 93.12632089031528
118.59895395672493 44.57268054493968 250.30660476944468
23.459454327457603 291.49697847518314 49.51187313669224
-104.39302135891691 149.02282549852958 -220.32456329681602
-82.57048368547585 -177.14862176313102 -174.2674512375861
57.690855643546925 -221.5318950759843 121.75825941643198
57.76177761960654 -221.82882115012768 121.9079423473413
-82.22317147619617 -176.3193651047612 -173.53443853385272
-21.908758724143343 47.077767430792775 -46.23908414027218
23.531449620010363 292.3301821857074 49.663821333847835
20.826363583654757 24.31504294245839 43.954657139899965
43.777059896862475 -238.904292293987 92.39278142006688
-92.90534678413842 -149.6883444835154 -196.079485886114
-27.017909059509847 64.99736677645436 -57.0220972363986
46.063523169852694 332.1732929416389 97.21842987393977
141.02075965842303 5.414516315694655 297.62848975031966
34.14456537020444 -301.1889467338952 72.06311644420377
-122.42559000351491 -147.89565562276272 -258.38283347640163
-103.99911913334152 247.28017678982326 -219.4932209838739
63.95564998427865 318.013787811246 134.98029341160174
141.22123600191864 -38.994136463774105 298.0516010106035
9.757100716577634 -185.16843482940234 20.592650030043366
-48.94006199099403 -28.084922790769376 -103.28945024794841
-55.279290186162946 177.7576154355757 -116.66857909735165
30.525581671554153 124.8005351253706 64.42514416785761
83.40055484658984 -42.33682012161433 176.01934100662478
-1.2072144858656149 -107.38880418935534 -2.547861925458227
-80.74810550422887 -31.275917659358804 -170.42126811424853
-36.614719327537706 158.5100757236638 -77.27644952759255
46.69662218538318 141.8409040015831 98.55460409616889
-11.028661240996692 -144.98152059102605 -23.27631617555022
-55.30987565657178 2.7519199272582213 -116.73313063847323
-58.74371137450664 326.92306384212117 -123.98034261815009
-9.983948854515384 -58.82357537730998 -21.071419743528253
-34.56718690842427 20.0 -72.95507171703733
65.71195691565202 -278.1295569927697 -58.81765011975864
-205.93569486074244 -159.19511371584952 184.32952260174426
20.618151141112836 -157.24299304601848 -18.45495487968674
135.73962257298132 -4.324928150469702 -121.4982174116932
-171.36152475261176 -44.45220583206371 -105.79340006749628
-12.170644514853464 41.02625331943333 -7.513786225338471
99.93823331712277 -29.411135983869627 61.698829504585234
-19.939225797962525 -190.98268345485408 -12.30987232942348
-106.79521830496455 -2.449641543444855 -65.9321237468186
-130.0083772781428 324.84392232115425 -80.26322296891752
27.00934367310608 1.3606807507497791 16.674748342106245
-71.29404147049517 -317.4745287916542 -44.014775560648786
-64.07447616105557 393.14783115914344 -39.55763524167924
281.03817361363065 194.78701215302544 173.5044315126646
221.57612897517427 -246.21998239390092 136.7943713848198
-33.92491501475556 -51.47185267027716 -20.94421201954872
199.121018589774 -219.24054593969626 122.93126833416706
246.7732967408063 173.47654257024917 152.3503373686992
-55.27132618017132 341.8812969704151 -34.12283784987053
-278.1740000207731 49.00260277933327 -171.73617773919133
-102.53154900176342 -285.13985907777095 -63.299863833163826
219.68738537181602 -181.91342090367402 135.62831845699094
227.8376688648925 210.9456001519038 140.66005591084087
-91.20678978581059 331.0387705408092 -56.30830149657168
-279.60513331606097 5.447698324258457 -172.61971596328732
-67.48042945119455 -299.42257251785696 -41.66036734303671
241.4918551940416 -146.6550598020438 149.08973578793822
204.96926394314244 245.40803969144628 126.54179736777004
-125.31497534760541 313.83882339223135 -77.36565918479664
-276.4195293554616 -38.106715339233226 -170.65302084460868
-31.130853618893543 -309.40451656982424 -19.21924338675723
164.73886772820958 -61.44965470139677 101.70477279189359
64.29538850333033 112.33289721667175 39.69401981131856
-97.13543101591266 187.81314878931138 -59.968464502347466
-103.17349593877987 -18.805440172523205 -63.69618237215868
3.7000264605445796 -176.47188666843599 2.284283943935606
109.99361756996238 -15.147735402178292 67.90671829775991
87.25407436741446 186.0963679890599 53.868015065792996
-164.12573010081613 -71.39130897725848 -101.32624024554217
132.02353666212898 367.1109137791513 81.50732115967295
-244.39889803167765 265.8608266066027 -150.88445573093227
-271.44384423747766 -186.8313861490295 -167.5811839952535
91.42580792019677 -343.22133675690355 56.443516639799455
323.1561405475675 20.0 199.50678491319738
-64.47074905212938 20.0 237.11145252108207
-16.543372250355084 -193.1496877721224 60.84345352815624
73.29936524280805 -161.13182887061566 -269.58146472817344
66.25297363094492 236.14917518982406 -243.666143831711
-35.38250793505353 321.69188755545184 130.13029899087485
-85.74918993471756 -23.639019042237727 315.3696098906345
-13.511477578450158 -309.85435770340194 49.692707490367454
78.88757389278996 -122.4606559680644 -290.13385925544503
-1.9745681691713235 -320.0367295627338 7.262095346767846
52.069416021715874 -43.51338911906889 -191.50165069201682
18.269629870407744 122.3613905208748 -67.19230874907682
-34.13901698278556 178.9958405260683 125.55696999712175
-31.374468115180154 -30.306911561665416 115.38947222176
5.9373815753752535 -183.74717405429192 -21.836587758129028
53.290020600489726 -16.329682663991974 -195.99080785060565
-80.07141438219584 237.63049017830176 294.487804914884
-77.48094554382716 -210.9474077452354 284.9605411866536
36.04549012180865 -327.8968296078564 -132.5686244579793
83.9451060868838 48.38402197660526 -308.73452424452535
18.577554020875173 370.86698370006513 -68.32479663943182
-31.364951535931628 83.2625331666043 115.35447200907711
17.195422201084412 344.7632015691696 -63.24157225962496
86.27633381507498 49.172270656652955 -317.3083472714904
31.805297721638667 -286.9721677996389 -116.97398357424738
-68.2466404225964 -183.42272002868623 250.99848036822763
-70.57170572073265 211.81071081638015 259.54963912088436
42.52339336411927 12.822510334258938 -156.3931506137611
20.99146628479815 -302.24683019295105 -77.20271804677316
-75.18313683997793 -148.26530254077286 276.5096271303467
-64.17327834146766 248.87217658515846 236.01741044270565
39.25436900153272 318.5054859762262 -144.37028557285768
86.26924189878144 -38.81277857522706 -317.2822645192618
9.682855650143683 -312.2768547796628 -35.61174643559852
-80.47129053145026 -109.03046136613389 295.9584751951624
-34.438117642649345 180.3888437528725 126.65700672622772
17.775257818179426 119.59151444458296 -65.37410007129486
51.607120971371906 -42.94948947002979 -189.80141527530506
-49.49724141847892 -31.29428389911807 182.04166976612112
-28.675797796408 197.03047827932335 105.46426352529825
50.71225482910017 -71.57970935183678 -186.51026364568116
-88.90379891781875 -25.24444577092371 326.97167639546706
-36.70268684578164 332.9485024969235 134.98567206645882
68.6548158411585 243.9851436637173 -252.4996738210973
66.74986496957322 -144.9472008216569 -245.4936179774206
-22.828633121969656 -274.1308427674245 83.95947678914595
-80.08205284751314 20.0 294.52693121636287
-305.96507325467206 20.0 6.771672486408934
-86.64892498613484 -272.98972288057536 1.9177291547167181
49.42599073055358 -12.053723853601667 -1.0939046669062313
227.4632303258662 214.75470524865491 -5.034255975959982
-130.25238199207794 311.4669007473024 2.882768487404509
-300.92486541259535 -20.191255952190737 6.660121725379539
-7.823260241225924 -30.122844290230887 0.17314576322713515
303.3855474157023 -123.78374041680752 -6.714581969619155
221.40256485114986 267.4148249371678 -4.900120268220868
-173.53964723153607 301.16405161180876 3.84080980864361
-320.25169747013945 -67.09795643555618 7.087866550961585
-7.367069541335591 -312.94846538362117 0.16304927091138738
195.5206010239876 -42.589812937129174 -4.327296120424288
71.47600551518752 125.09819344998705 -1.5819194486383024
-129.83664053192214 178.69402316026074 2.873567224733416
-118.3238870987038 -29.79116198657087 2.618764953228251
22.603979871423725 -183.5682740965857 -0.5002752338704205
91.07949318815774 -346.9399799998522 -2.0157872646625683
300.96124030239423 6.668353812625567 -6.660926780799189
87.85590593017446 275.0028182931611 -1.944442267960104
-215.8272311391292 173.94905549389512 4.7767260078936005
-209.22875426903207 -143.66962919724224 4.630687364338195
95.8212073528461 -222.7111477012355 -2.1207317114449276
260.004901161786 43.07218025489374 -5.7544739234443165
51.90939498959348 277.293305809893 -1.1488678040861855
-228.63481971057865 141.02438322755782 5.060185797025612
-181.06161931425314 -165.15299527395365 4.007287409679053
100.26735295324492 -159.78873789381672 -2.2191345830946876
100.62289367144508 -160.4262556412422 -2.2270034724212486
-173.76322817278287 -157.68968534862518 3.8457581411190174
-274.0631109733167 165.0711620082981 6.06561268048038
51.23699350009098 273.960490967796 -1.1339860967793698
82.63513232373893 27.33283357291004 -1.8288951938695825
114.28776614868679 -269.4861759361277 -2.5294368188163223
-247.28967603138642 -173.44286458983 5.4730583381354885
45.46214144547845 151.9544095698372 -1.0061760616164603
331.5837194039487 5.31187330253729 -7.338668841328519
79.3765684656633 -299.79137592560124 -1.7567760889396857
-286.22839529079164 -148.11845650485103 6.334856879583518
-242.0954738317937 246.59691507508714 5.358099347066105
149.78569451622963 318.9256644081185 -3.3150831747679472
329.0654345374936 -38.87440504220906 -7.282933720447843
-98.83362064903413 -21.589580397661415 2.187402969110046
-129.97593664485018 178.86427911020348 2.8766501506548114
69.9183897864717 122.80787800779946 -1.547446025046704
195.07307651594596 -42.446551945211134 -4.317391429781455
-198.49315204988912 -33.983626149583344 4.393085139355182
-109.25597800918938 197.01346020883267 2.418072404116243
139.69598362284114 176.10865825202836 -3.0917759295134886
192.68325103438607 -71.31851792344413 -4.264499394463005
-52.70252685667178 -317.65980753373555 1.1664215372141422
-321.76475713593607 -22.9746132567469 7.1213538519799
-131.51712666468163 314.29703102455807 2.9107600375860354
263.46362138214874 245.57834887210225 -5.831022923973282
253.4466154009191 -144.36509823300528 -5.609324796544121
-85.69605338846051 -269.7677373177072 1.8966400339474303
-307.6046717389802 20.0 6.807960366678541
-90.14164497855855 20.0 -281.6570906981742
-21.14545167024218 -214.51452061161714 -66.07119717369173
83.45892247265215 -157.52496890541914 260.7762183843339
78.07077245919427 239.24454530897194 243.94037455879842
-41.18851457206022 322.3035608734393 -128.69786420366862
-99.49414864852335 -23.58475482469764 -310.8799762473881
-15.663873544005519 -309.16273556653687 -48.9434273416922
90.71834387699674 -121.01768037186235 283.45904731857513
67.30722147419009 266.6995163031076 210.3085226357626
-53.097026112464995 302.1596087355137 -165.9072663153548
-97.66061292659178 -67.11632267531546 -305.15090022205857
-1.3886189940168123 -185.83959264280622 -4.33888671585739
36.30852040471707 -18.12266438125424 113.44980699187855
35.09072967565849 189.23529411803437 109.64469123314754
-24.94108061861152 119.98667605727927 -77.93104072571222
-57.3298016922691 -59.126842705294294 -179.13302068970066
6.8956580607887155 -183.6875407350565 21.546211945800916
62.16403912888367 -16.479346940948275 194.23810616340077
-88.46013172593538 -150.41735651548933 -276.4030249351529
23.339214249792487 -288.4069970497065 72.9258400636194
31.493278876312615 319.81645312593514 98.40407623977134
-65.84969508117621 174.05937161889548 -205.75432747358485
29.551456648255414 -225.51076661129767 92.3366475885887
15.746819359110917 275.99938945943177 49.202600301912
-69.78012858202254 141.15067442131 -218.03538208817886
-54.793792791437475 -163.78043252906568 -171.20899302010562
38.275285962655566 -205.10489667999315 119.59517371184569
38.21885902028355 -204.7730381265388 119.41886177046416
-13.11657852958247 -23.993495479378794 -40.98413501811614
-71.08677165998405 143.41923845722891 -222.11812639584136
3.7395379715578922 80.79446367848813 11.684581370518389
79.01662398037966 42.99795055856637 246.89578753970073
7.968906971597289 -46.20494153429371 24.899691526578817
-79.00613883809852 -182.7081130960274 -246.86302560517905
-81.90635925450891 211.62491523743222 -255.9250706240369
32.95016081726717 333.6859894760786 102.9562577434212
101.18938897373936 5.298158072330917 316.17693369860984
23.436164128036896 -289.68810362397596 73.2287701982576
-90.25272747209755 -153.8707701878579 -282.00417968201884
-74.35885178317285 248.27773889333804 -232.3420863451844
45.83544163100838 320.02528030434723 143.21767861820797
100.36320807134038 -38.895534116602896 313.5954442059848
11.251288664717178 -312.3464269854374 35.15583981924645
-57.40566077806626 -59.231543746854825 -179.37005041568062
-24.091693972157255 116.58155705842455 -75.27704243474369
34.87814171006431 188.21002655546664 108.98043768063091
36.534958766559875 -18.36041666571397 114.1573375703839
-1.392530786801939 -186.41945064335425 -4.351109525586844
-36.60765558787945 -12.655174291990974 -114.38448646699818
-33.37618854910194 197.36233065389163 -104.28742638954328
-16.207395615651038 -320.58438114105036 -50.641719462568574
-104.18923555750897 -25.64150102121703 -325.5502712001208
-40.22450953496462 315.2282351803002 -125.6857286448898
75.04658652321005 230.75178611651998 234.49098618051602
78.35910966894818 -146.6771879542851 244.8413146254971
-26.558915560796084 -274.55276944827625 -82.98613688192218
-89.62041881647374 20.0 -280.02846450166425
279.2696547845773 20.0 -189.974412794205
41.66134556937054 -150.3337189084133 -28.340313833462385
-230.87224961091582 -161.03934528176447 157.05186474392784
-209.79600577375976 237.19613861247703 142.71465703706198
113.66126396934104 327.53473716010865 -77.31857547028827
276.2801563977887 -24.617098475460267 -187.9407933484493
42.97571754203014 -312.9271360543307 -29.23442115740984
-254.64529399052654 -125.92465376428828 173.22358289866568
-183.66929214644765 268.1748403608567 124.94184500913278
143.80502387524882 301.7171389027559 -97.82400092351793
264.738453212646 -67.0586002075006 -180.08949891786094
3.847263259540997 -190.23851540558417 -2.617117778728256
-96.53746336144577 -17.366734040920747 65.67003467984931
-92.88038018565003 185.13422386776347 63.18228774079401
69.2051188474926 122.27739247469061 -47.07708693071951
154.69722558075935 -58.71191635540619 -105.23346911166234
-11.905433466463563 -109.64283601776506 8.098723556616061
-157.817311910591 -14.141062708031036 107.35592158088683
222.93770521822412 -138.33040866219937 -151.65435597071757
-62.26194622201217 -283.30198145829934 42.35396316894915
-259.2626023170277 6.113550629438777 176.36452722608814
-31.972167965151534 -77.92155443566229 21.749208089302172
66.1993910991076 -61.85335119253935 -45.0324273902508
-73.38594535664113 -139.10871014171303 49.92111257927272
-72.20171636850499 -136.5411729123556 49.11553559380117
177.88845985478974 -199.9531798683014 -121.00940837932197
240.4124557301951 173.87412595798753 -163.54163197926817
-42.28299766103823 273.41155675850933 28.763195407072512
-52.166443287705555 25.59727257782745 35.486452829215
-100.74512728684812 -288.55334791495636 68.53231659902264
214.37051120725818 -182.76355673735438 -145.82648450798115
221.1692435817072 210.75399846111375 -150.45135215275698
-88.59661847699702 330.9347726540665 60.26823996936891
-273.52795148074216 5.349479578909602 186.06859383071597
-66.06926692311822 -301.8489107267007 44.94390984636305
237.78928638649714 -148.87800496651565 -161.75720947868112
201.26495045482307 247.77895784158065 -136.9113690787622
-123.72924445354789 318.56806574267836 84.16736354211118
-179.90685211303267 -18.919755033435685 122.3824286036061
-9.899289434012864 -87.79716340452927 6.7340352418780896
155.42124944666597 -59.08030890904516 -105.72598953562569
66.34600906459832 118.05194935338454 -45.13216490709869
-95.38701572140334 189.59083045021512 64.88743760521861
-97.9706812692509 -17.92148937132678 66.6449874746721
3.76603329676406 -185.7996024358719 -2.561860738747499
99.01462295798609 -12.560719344657556 -67.35513340678864
91.5047854893037 199.25984551360273 -62.24653338938481
185.41610329991906 -9.943259942120172 -126.1301209906356
112.84472220479253 325.3254096533478 -76.76311933825092
81.5308053078004 -313.3412563584002 -55.461689437528534
281.5268970795853 20.0 -191.5099118080852
26.97724562353695 -97.84220411335309 22.07702987890774
-215.61654713612393 -160.64220987081524 -176.4514072318042
-193.23603257210638 233.73660730284115 -158.13614645128706
104.66920822701988 322.5774444486576 85.6568261147251
254.39527997579108 -23.893134402425446 208.18627206991692
39.47928980295541 -306.7618187199913 32.3081708466734
-230.47375071111733 -121.10759873245658 -188.60991043184814
-170.29429163029357 265.84263616855634 -139.36160188456276
134.5490714682395 301.6150304798118 110.10923473936793
246.61603853728323 -66.64667168718543 201.8200718999732
3.5031645992638176 -184.52991336570645 2.8668408409049166
-91.66122065771387 -17.906248840271665 -75.01164260564684
-88.8706672580595 188.8136114914944 -72.72797244737441
62.94118853266241 119.38304132566412 51.50839041318595
139.45693743823358 -55.811309722543655 114.12562340903627
-11.698463674113752 -116.10311226826701 -9.573524876290355
-147.0197649138006 -13.980833893877822 -120.31471960058539
-67.101526859691 192.99729437334395 -54.91303426874845
110.67549446360272 153.82363944821665 90.57211519044233
63.24651052017045 -43.91419764082311 51.75825293566013
-16.773641961740903 127.40485948487493 -13.726834827213299
55.61874775985649 -53.47499943728555 45.51601647020912
-71.43201441192932 -145.46642137631247 -58.456921010009786
-69.57712703711172 -141.16972642106123 -56.93896011187685
78.06538773921869 -83.12807373830329 63.88539147686677
84.47531895209539 196.80924336294447 69.13100642522741
-109.81334026568848 178.53027602358625 -89.86656488137106
-238.06878919608997 -125.75766252318479 -194.82536674284756
-107.5085806009105 20.0 255.5463220184895
-26.40085667372016 -210.15141516189985 62.754449769466504
107.37750858964792 -159.53240680460092 -255.23476576678846
97.25694003520118 234.68602754947054 -231.17832249157198
-52.31636871029906 321.81969989055375 124.35524244254498
-126.98055493332492 -23.7237241623003 301.8309199108069
-19.75180157025079 -306.2579225917039 46.94974313960822
115.91346473077762 -121.62998158924188 -275.52460853640235
85.59755718951857 266.6101027238501 -203.46414017639378
-67.38734075624257 301.4788859158864 160.17872233649973
-124.02729888399352 -66.96414526016719 294.81107352117743
-1.8275286889004863 -192.93785437365244 4.344008936044277
42.712813631049166 -15.251348330471359 -101.52773262810037
44.657873907902655 189.2931721255987 -106.15111242788878
-31.705611719492232 119.90928698912347 75.36377484453494
-69.18574085951056 -55.05901334984935 164.45349305097713
8.260301982861042 -171.79069354759372 -19.634616871356016
63.492017300204374 -9.286657866048493 -150.9195955142591
28.47492345564989 166.50817323085943 -67.68447614299282
-46.614638384406625 132.4853760970076 110.80231293888119
-55.75642579434192 -64.43140699864118 132.5322077642633
20.580048593038324 -193.760396199131 -48.91847418612644
12.150603725777941 -59.347338610432644 -28.88180715503197
32.70115847270582 27.481292965564762 -77.73017490078335
6.376775213645803 101.48732288927309 -15.157501318290604
-28.324528161987175 58.654460191409825 67.32698873194543
-95.95961671098907 -232.98761968146508 228.094603944474
63.353603754203405 -272.87390654330585 -150.59058854197482
63.5500724681358 -273.7821510053914 -151.05759179842653
-90.46598356350077 -218.5042232171782 215.0363183870549
-112.7222993939296 173.83202889340347 267.93925525365705
25.211006155621675 342.1655664716528 -59.926192508954536
126.62911389212319 48.969906365474785 -300.9955497014388
-26.36435804967689 -33.17045203257294 62.66769307450449
-109.92893143505815 222.1572021190436 261.2994605140746
41.22731283670662 15.291694198186747 -97.996718989673
-47.432935808514834 134.460002452595 112.74739393501413
38.27816473809904 216.9474649912029 -90.9866371387681
61.785714664889554 -8.499599844878308 -146.86373913267585
8.187531534755825 -170.101082835924 -19.46164258166692
-49.00120486893109 -33.16098439827882 116.47514653006023
-47.61244728162633 170.03418643362795 113.17409007831131
29.673766765177813 132.4900418446286 -70.53410913706603
74.81482626235737 -41.74548751667603 -177.83374663618065
-1.7799077479013892 -187.3892131615121 4.230814656523897
-77.58956229777058 -34.40342591550963 184.42925356649914
-42.90748362601987 199.22580937262137 101.99046035591577
86.67602899506075 269.717224603049 -206.0276518678932
117.17503159908735 -123.17143919942802 -278.52333451134285
-19.977307435972136 -309.982801814534 47.48576728071941
-128.53725443532264 -24.25974875019628 305.531171834886
-51.80523177462373 318.8708867307035 123.14027743017527
99.11582199928344 238.78934382086194 -235.59685770366931
109.84711645060798 -163.66152703625124 -261.10498749391775
-30.445519395659616 -245.41106074126344 72.36855384022724
-107.90411786902811 20.0 256.48650831360874
-273.5877297654875 20.0 -30.386296611574622
-76.0530666026894 -238.6794123331282 -8.446910400514183
47.918403426402186 -11.259453031703188 5.3221057132783365
253.19685639991107 238.06752431828755 28.12156373489711
-135.06490353960498 324.01989794480727 -15.001119473764785
-326.3096540188484 -23.838870184885366 -36.2419102009297
-50.76513165064574 -307.1669116858693 -5.638280449142963
297.8778912205277 -122.00678233839847 33.08410784509946
219.9906977581346 267.28815569988626 24.433488298601333
-173.2836070896004 302.40637075762857 -19.245918256135102
-317.64358230070565 -66.8985515467412 -35.27940422191382
-4.530475506678443 -185.95956326360925 -0.5031818227206587
118.85414866034323 -18.27202158559433 13.200655664656791
111.32254602927806 184.6546632336592 12.364150636802533
-84.8874611571648 124.36689731489693 -9.428111324788356
-176.00461488947374 -54.500607794859775 -19.54812972651147
15.331242802941063 -118.88600049925248 1.7027799149967693
160.8131609247793 -8.94154965094926 17.860875599552017
72.92810597571842 166.40089363122735 8.099833502759939
-119.11823926795637 132.15057785678687 -13.229987153836305
-140.19606613368268 -62.831291572734344 -15.57101721252489
53.235446326195294 -195.74028817754748 5.912648435307829
29.078916453310637 104.90009299542437 3.2296791279743964
-71.49328196860344 71.29699812515796 -7.940473330054181
-64.9650848302051 -31.119037303474705 -7.215412543314073
29.948430121355127 -56.305892153321935 3.326252538805598
80.49693233356557 27.185257867116356 8.940472821300238
15.919079870380957 99.37000522488202 1.7680686306340452
-67.72940314141793 56.06315199367978 -7.52243433923058
-54.88236865836034 -36.45379164781513 -6.0955655219925635
38.15371009012356 -48.816984242642235 4.237580218324439
38.40548584198732 -49.27110647368504 4.265543945653484
-54.583528357953924 -36.146394783074584 -6.062374523202431
-298.0972200001136 178.72464328839555 -33.10846781678995
64.36836790864177 340.930464500758 7.149137577739734
79.8633320790645 27.128701908009795 8.870101371224822
29.601635769632956 -55.42229150064452 3.2877354750334713
-64.84764975278247 -31.026631234596415 -7.20236949822493
-56.029370045343555 60.20151839486065 -6.222958385658762
107.62761093081133 334.23434196981293 11.953768950610804
327.8706112024124 5.390625269528718 36.41527948184885
79.58614208071087 -302.52828542517693 8.839314985026306
-285.98866186666197 -148.9691507819154 -31.763618618702957
-159.38069762415367 170.0579377903469 -17.701777621088887
48.18082428867231 116.72149903494436 5.35125175051049
165.22556802930418 -9.735650696917386 18.350944036334756
17.77454305499128 -141.019900822126 1.9741475170218015
-174.58463178995945 -53.89954625997515 -19.39041787414788
-87.19124365631369 127.19933720939878 -9.683983247142834
108.26472576825489 180.13191035684832 12.024530751378661
128.32007321118294 -21.320127796616497 14.251998103702412
-4.498587785282959 -184.50991826223927 -0.49964018084431794
-204.08024721548054 -35.830745119659 -22.66637809293793
-110.52579705564345 200.12776710862752 -12.275658910004037
140.40746534629403 177.82986965273565 15.594496478877105
301.7490014607221 -123.85224964392688 33.51405660075264
-51.428958606968926 -311.4450886181914 -5.71200905828375
-331.76735858445056 -24.57209888042702 -36.84807565246836
-132.28662484152898 317.7662229773231 -14.692547153428194
245.71435849652013 231.62317182233053 27.290512573052922
273.1916077002278 -158.21587571624863 30.34230091564305
-77.60649334120073 -243.96308508652209 -8.619443304973084
-272.971518800055 20.0 -30.31785652039441
-48.910285709318515 20.0 -273.44014400199694
-2.4718273005381137 -27.457162353078715 -13.819113979913546
43.43113945983362 -139.92588596814804 242.80817124331585
44.07207516342499 234.25683757496685 246.3914165371101
-19.361986505918846 5.31689684415306 -108.24603253819224
-9.03719166997255 -308.75764260065887 -50.52374885514387
12.936257639228048 102.08166575840507 72.322050472985
-30.779100351519375 303.1466568239732 -172.07508625875573
-35.45279288730297 -34.74713697386178 -198.2040515974767
-0.4653361290503024 -99.41075790595356 -2.6015300522483784
34.18497351273471 -42.13564511168687 191.11612096442343
12.648674915347849 125.602558944476 70.71427696911225
-21.483915658346735 169.0977787089429 -120.10898947224612
-22.8483020582046 -34.59189863293962 -127.73679225934823
3.22898614261158 -145.11472207629032 18.052121818784304
28.024875229657415 -8.469666989487045 156.67718573509623
12.856703084445762 165.6856963003469 71.8772890368125
-20.804511675165315 130.5654106785991 -116.31068160504707
-24.68354446320802 -62.31986227521348 -137.99698477764906
6.91348192746844 -138.14872445243313 38.65083727045178
-11.93880586562998 68.35329942120154 -66.74564966787297
-11.560421711042382 -31.34697227337451 -64.63023741423335
5.268750338530145 -55.77573176171548 29.45572348197854
14.183529148951699 27.146375645230595 79.29510524627666
2.7474020487654855 97.32130433665176 15.3597551302524
-13.387016602728863 60.235438839122374 -74.8420847378098
-9.944484724841029 -37.74056922114764 -55.59610408630503
7.338242598112064 -54.7118401263711 41.02552425628243
7.355398045448387 -54.88650252292604 41.12143430714458
-20.974896839469082 -101.7863485516245 -117.26324491943699
32.970849361485264 -39.928816214906824 184.3283813726529
-0.8086890514649303 -187.5191813340487 -4.521095051450066
-36.059360847657956 -35.6838152015848 -201.59515896929207
-19.295672930431714 197.50698425306246 -107.8752967437163
25.039925711806433 178.88047920901155 139.9893865500598
-9.147189344623596 -312.75917067823497 -51.13870702928384
-24.402099900265572 330.04533659960964 -136.42352756505096
50.56402857477992 -166.1912252018868 282.68563665688623
-49.713190536284074 20.0 -277.92890149587373
45.481913050072095 -151.98306866083388 -22.79566141415025
-249.20724094795386 -160.73469345966643 124.90336280160298
-225.222528330588 235.64845355290308 112.88215807920612
121.08143793629678 322.99739926399235 -60.68635370934322
293.6907309996173 -23.865340534904917 -147.19861182996004
45.64913020316779 -307.06810852346 -22.879471116710718
-267.3010714922959 -121.66851802949654 133.97204103243604
-197.68350526497923 267.0422683569281 99.07952306715278
155.4354617774493 301.6235395150572 -77.904686078837
285.9340960811857 -66.96414526016719 -143.31096481917845
6.571330012385969 -312.1186685897335 -3.293568892717385
-174.43738648301579 -42.446551945211134 87.42850363084703
-64.28202580520512 125.70177838601482 32.21833025488365
107.97718989586294 167.58869187990504 -54.11846811737386
118.21714562941062 -35.631153415836884 -59.25076243271752
-18.890441137600813 -170.25016613401246 9.467941677444475
-191.06319061560922 -18.227777847037743 95.76140293803611
-77.29921205877862 192.51453617499965 38.74258023695255
124.19001138379905 149.99054122854702 -62.244379373573
60.27533464754688 68.08041216462175 -30.210165494520684
-24.47246390441507 -49.320796467419356 12.265667025063165
-283.17874600364433 48.10124218107246 141.929975691128
-12.952104009796335 91.79275265740843 6.491630580339167
59.37344196506429 55.14637147607132 -29.758134371750216
45.00920793684 -31.471102933299854 -22.558740295680295
-31.209407726609697 -42.58153668563124 15.64224202022284
195.69003406317216 -203.7849175311137 -98.08038975221888
259.9583267512178 173.88348086122843 -130.2918369305577
-58.16775055846819 342.4204287831073 29.15383848286672
-293.7756864987493 49.15282954571007 147.24119176258844
-108.42683893568898 -287.1302858111706 54.34383346767889
232.27799382649033 -183.19478505878644 -116.41837702379502
240.4899235303645 211.83393526374863 -120.53421904829891
-96.23073370950586 332.3529256551036 48.231111581918675
-296.49840053282986 5.31231572931814 148.60582361481784
-71.51399824734521 -302.1983034287742 35.84301497221282
256.58204013028654 -148.533676330561 -128.5996326786578
144.23013411432535 170.96667587094592 -72.28854466539266
-43.44650743584562 116.9628781341165 21.77551045499235
-168.1120229528802 -13.635725678778591 84.25821382365177
-13.827858176787306 -119.26367818774335 6.930561006391809
138.48859260057685 -45.170581646908886 -69.41086807780921
91.10486931017411 144.52674956947993 -45.66201407774437
-96.5537749930811 178.76764303568967 48.393020772393285
-117.22819041822432 -21.966326313353193 58.755095328232635
4.074145482694203 -185.90957550494136 -2.041973055822013
180.38563732260047 -34.8625819094915 -90.40978350789021
98.0741078737793 197.69418302845997 -49.15501584386359
-69.12811220154333 106.3884198259757 34.647202245229046
374.4528020954901 -35.927879038815945 -187.6767866547573
152.01851328354428 400.4151565256952 -76.1921019830252
-278.55005056844385 286.7090547620399 139.6100606555865
-315.1809235720359 -208.5813501623865 157.96955616263176
377.9013296705918 20.0 -189.4051982739615
241.2802093247664 20.0 257.8461895941007
37.96652049786131 -167.84367616376218 40.573251614445624
-188.86974802222574 -159.22231477139397 -201.83729529005367
-171.2501445281133 234.542964224636 -183.00795310807365
91.84835243043955 320.7332950421879 98.15453891126063
222.05703587436713 -23.39549182205782 237.30317846209252
34.587185128162936 -304.2423380785545 36.96189554477125
-202.98941140562582 -120.76505259685965 -216.92639609923205
-148.80207177406155 263.3092514229266 -159.01862534861178
73.62015617171963 -9.296776164580685 78.67481878983942
5.018239035550813 -311.8487346929267 5.362784695065892
-131.52254208522558 -41.60527463096902 -140.5527059898989
-48.66046901334429 124.69304739703689 -52.00143250068353
84.082360404205 170.37469833351344 89.85534413690826
-12.546678848865344 -145.33337758015347 -13.408117235534725
-140.90022409004712 -16.88608162302951 -150.57424724657835
-58.32186975768414 190.30636441590627 -62.326172250542214
109.62820674863755 170.13992919611522 117.15513452710252
210.68237115768113 -161.06622594802755 225.14754429998763
-58.47451154845849 -324.7050166540085 -62.489294224922666
-262.16336828875455 3.0077146278667932 -280.16315865103826
197.19119523616715 225.80924646773906 210.73008207114918
169.89300002248348 -174.45933134749131 181.55762885444122
-78.46895467819924 -270.8255285043967 -83.85652939305963
-212.70438086870442 47.617865468083565 -227.30838252525567
-42.091041936710006 325.2662347429018 -44.98095724385694
188.1542009436096 165.73068268678176 201.0726196947668
147.97055089169044 -201.40437902044857 158.13001334148805
-46.700075500537146 -102.52567118328307 -49.906440960362325
-56.38959223482536 -127.94778300185305 -60.26122710687798
68.99973187749166 -83.24245396704397 73.73716227043914
65.38533616691683 70.6427686946266 69.8746069275658
-41.37875694857031 320.10037173765136 -44.219767709867064
-42.18288652686878 25.47709116472601 -45.07910776218394
-70.96536716099904 -243.0153605938125 -75.83775547450877
176.5722502609648 -182.10439344602253 188.6954675862527
182.11550084482195 210.07468337558532 194.61931042861767
-73.09732492294773 330.4431462803736 -78.1160906385591
-224.28630081057872 5.4627408348073825 -239.6855017823786
-54.16593265040077 -299.3061082838325 -57.884893994423955
194.75657974766906 -147.3791626688308 208.1283091010709
165.7693831636015 247.0273699553709 177.15088991226156
-102.28217043225561 318.6753453423103 -109.30472906658082
-146.66429359432752 -18.3950496859889 -156.73407014458388
-8.383308410287846 -90.47072388358316 -8.958895285420407
120.86441003578705 -54.41917365142379 129.16280068092502
59.529670736485414 126.4641410619188 63.61689924818315
-73.72856563110174 178.62708216017634 -78.79067149941665
-89.06778652815211 -21.7194297102604 -95.18306302922895
3.1034980544629014 -185.22974198705748 3.3165801289522676
140.4888310681535 -35.90683382723314 150.13460852354456
74.60768926018227 196.86880660966187 79.73015459492176
-96.82114347349439 178.31419320704725 -103.46875521473493
255.80444986003172 -29.99057952942985 273.36764528765696
104.3230656684647 361.57846555974186 111.48574947223267
-193.88659822255744 262.9020169338878 -207.19859579430994
-213.98052680857072 -183.05043942834837 -228.67214695865601
72.64205361477575 -339.4048181437443 77.62956100410548
243.15917904029072 20.0 259.8541668868364
-130.56131690374022 20.0 222.34029803065644
-35.33033985903572 -215.86660383889216 60.16604672863365
141.1228931444845 -160.69661198190417 -240.3262073698821
127.72525293235755 235.91507156736748 -217.51060326665421
-68.67018436718988 323.3899657218052 116.94236562639735
-166.65956325564738 -23.947398619965533 283.81405643479803
-25.956729035373478 -308.34266931853983 44.203191316467205
152.30256959534293 -122.51203788840394 -259.3647147388206
112.25292902659966 267.66816341173075 -191.16190221173625
-88.4253839804146 302.8573496256317 150.58461950238947
-162.45336708487682 -67.2317676109452 276.6510855613192
-2.2980994348574697 -185.05978360758652 3.913564334120586
60.54889924383314 -18.268973479383305 -103.11216693094175
58.48233200395047 189.78100104649783 -99.59289195032349
-40.61552582633104 118.01325481930665 69.1664907420949
-90.4221548351417 -55.12493622786896 153.98503424595611
102.9557790664626 -16.368419300380666 -175.3292563561753
79.9194109113915 334.9013847866605 -136.09931380804142
-128.50872559498518 257.4812741908336 218.8448234586574
-152.5868702557152 -156.9494732858052 259.84886651559907
42.07143474659698 -314.65027111656013 -71.64584091191651
175.1017776312045 4.685839407633537 -298.19078382093466
53.916751335046264 328.9777215126352 -91.81790475901336
-130.39791228998 203.6415114545129 222.0620270129873
-124.00916923310464 -171.52697876175327 211.18227281784354
46.367598745023535 -211.8847144410616 -78.96202312002791
126.13147073659145 42.09835733402764 -214.79646084831563
30.6728316689791 320.1689885138122 -52.23451092909129
