# .PCD v0.7 - Point Cloud Data file format
VERSION 0.7
FIELDS x y z
SIZE 4 4 4
TYPE F F F
COUNT 1 1 1
WIDTH 266
HEIGHT 1
VIEWPOINT 0 0 0 1 0 0 0
POINTS 266
DATA ascii
-348.3484212568783 20.0 103.0459621132262
207.08950705621865 -120.020153520706 -61.259750858539114
-7.6307360049851765 37.80243238918874 2.25727026529536
-18.78378422720001 -105.47013594355252 5.556485976986034
12.471090391795126 34.5297066293473 -3.6891096086693262
-29.10160802436331 11.748310851011441 8.608631516378052
96.41622867261985 -12.17885726976101 -28.52116570831957
-128.60901319313714 183.88682963351417 38.044207156451236
23.760824645247755 -203.09818614618004 -7.028758813773052
97.31135977969633 222.47236437225433 -28.78595705088792
-3299.1017489610763 -2000.2621893048379 975.9169069993559
3875.261330787592 -158.97136624329076 -1146.3523527115851
-3150.7068186512224 2363.085464448005 932.0197700141194
7.371641705487664 0.5328824625910755 -2.1806268251630865
768.7969440828052 3992.8623277286106 -227.42006548179975
-2772.380846057381 -2935.7423834733368 820.1060610393737
166.3977466896282 59.026976455289784 -49.222602586338176
-154.0245471056435 79.36025275931146 45.56245034293111
100.22203429677867 -119.91329630455613 -29.646972165952914
96.42870145950369 -114.61767738235554 -28.524855319772495
-76.05883965926895 49.31267795682888 22.499187111645963
18.24331530668925 24.27879253839059 -5.396608289854911
-81.11384140442445 -66.47860169224005 23.994521915903526
3.6989206404260364 39.114673359086076 -1.094188498968676
42.36316599790044 -91.87314368846371 -12.5315716450366
-15.224388983830911 31.32191809214013 4.503570892511635
114.60378248948628 14.70724842068296 -33.901279029295544
-16.124520733167653 10.125869998359704 4.769841489646527
51.72351417467257 127.61931836423516 -15.300483529609185
23.68672753983646 -202.40246408843367 -7.006839932988801
-76.49008458079814 117.47153134221614 22.626754929192202
191.87350082249415 -44.0376633873647 -56.75865969177664
-199.9544190138209 -36.69658213688197 59.14909966213461
2610.2056144336907 3061.075048653995 -772.1325329455715
-603.6888448248969 -4012.463347726438 178.57895726224797
-1589.1340352207487 3727.434145394867 470.0863721309664
38.339478635592585 -5.922605933878469 -11.341312955200051
-3917.8289627774516 20.0 1158.9444080378303
-155.63899961433978 20.0 -240.04997375348225
91.84229222319932 -89.4570475109412 141.65305541842721
-4.329102503734046 37.80243238918874 -6.676995772091467
-10.596918178276328 -104.76863349044659 -16.344167829826244
7.075153511292096 34.5297066293473 10.91237041420205
-66.21869290434934 -13.095964046213574 -102.13247022319207
10.103588968802725 14.056192888506775 15.583281007889529
-43.532504723476684 117.78108761483928 -67.14240416725933
10.201201584794074 -148.83186564196376 15.733833928203811
46.78027069453056 191.56689971158306 72.1515994077889
-79.13579727447436 -65.4188199988052 -122.05517965143883
260.2276868662309 -1.183836693912827 401.36244486894446
-40.971176334703195 73.70653453963908 -63.19193664933218
16.9602324886762 -58.94739305185233 26.158632308406137
8.854542475739546 100.65411917874883 13.656812843614139
-30.892868755094362 -38.05511485018447 -47.64764841849392
42.57780325241168 37.60229422716376 65.66991935535843
-2066.9202771625487 1424.1001529961661 -3187.916650151072
17.961967872518773 -24.19959091343543 27.703659924846743
1310.3706484255 -3204.4711167751634 2021.0515394040951
-9.950634467600143 26.759664382192092 -15.34737147306768
43.94186401479883 38.1662171411978 67.7737798981566
-11.047025103410173 -0.7600115164309393 -17.03839071632882
2.098487825436572 39.114673359086076 3.2366048912308667
16.740436827300805 -57.924276506646905 25.819630240318876
-18.93089812481313 44.81532201323431 -29.19809051235089
10.598024046890213 19.137267777341116 16.345873467438896
-56.78224495881426 -41.290497199925206 -87.57815486993988
47.667562577851335 194.8210475670891 73.52011497156542
9.14607053254923 -131.36924199253005 14.106451446785428
-67.85006850173536 172.4022919191951 -104.64862408119018
109.2845633487113 -44.29065620287953 168.55516052225943
-111.78538502498928 -35.87010134771459 -172.412305448918
125.368091936244 277.4589503404294 193.3616076522684
-28.888098533984998 -320.1298865939677 -44.555588972265475
-75.3130632495763 329.7075468568404 -116.15918183201586
132.43183807054967 -137.83140469122395 204.25638388665064
-156.3190260029515 20.0 -241.09881316482782
2650.469190425983 20.0 -3096.3663827464984
-70.39275997720259 -50.1841635158376 82.23516665255877
12.984593370410346 64.67041111810282 -15.169034430205881
1.9560029226757651 0.733383330189195 -2.285067759400643
-55.80006221837027 115.86625922727302 65.18749111750887
12.23636065261598 14.883690352773389 -14.29492404921437
-78.47070488242382 -18.619505693650858 91.67209092866605
86.02509255814381 181.65028556381188 -100.49737821207508
-10.56581077106934 -126.2904709709816 12.343332039540485
-64.30977883917143 217.31400362327912 75.1288254920137
2320.793085049997 -2075.690415204547 -2711.2277765071503
-255.19593998056553 2.620591194622424 298.12839644524166
207.92638347880225 248.01762426386009 -242.90652621634362
-6.6876624077149165 -6.042966605229331 7.812749958839505
-41.904385761686235 339.32287145927586 48.95409908208465
10.212883103274338 3.9438753905289623 -11.931030183684562
-14.833204361938906 25.130162540901132 17.328643358927195
14.77949026815701 28.399316306693045 -17.265892765610836
-10.336389880133384 -1.2786140050905352 12.075314913833138
-11.359910414197795 -3.385645437070508 13.271025690315861
136.50442125921822 97.57668164568041 -159.46901122641557
-12.371577632925948 24.27879253839059 14.45288902904535
37.41389233024989 -38.82003262988767 -43.70815509855591
-5.063103584172306 58.58223299557066 5.914886234868775
-4.65747917680146 1.8629339713581459 5.441022292763226
64.57196406873781 90.81134002653384 -75.43511900933302
-12.66819619576658 19.137267777341116 14.79940871310578
66.67382621371608 -40.20687472795032 -77.89058437010266
-5.681848069248529 37.43293494021088 6.637724149763343
-8.552284090394735 -98.41189422843092 9.9910631102035
80.65470186991041 171.558751076297 -94.22350894797388
-94.28871437490294 -26.404368956601473 110.15121644025352
133.67753383727091 -35.89371508454794 -156.16654718995576
-1748.542179729029 3024.0503757097763 2042.7052099621249
405.82647100465834 -3977.3882250711413 -474.0999995723444
99.65469749417937 362.838330005746 -116.41993663550407
-2194.7579718587735 -2168.254195808074 2563.989359648499
244.00750626215495 20.0 -285.05769554201555
3867.5099656574494 20.0 1728.7580384600724
-227.371946398713 -141.47634613418273 -101.63414795241995
7.26485331467365 37.80243238918874 3.247353898890447
17.531071278507778 -103.00005688332037 7.836303116127808
-11.873119750340983 34.5297066293473 -5.307226456367202
111.74111262437064 -13.279626443806329 49.94773081160372
-16.95526769042656 14.056192888506775 -7.578921728540267
73.21566261813358 117.99777700567549 32.72704308875974
-21.370878771399692 -190.76402795099096 -9.552678284755896
-147.3744527392846 342.08017799537294 -65.87565955848349
268.5860548883766 -152.7567657774164 120.05665286698961
-307.06031349188845 5.104817569099158 -137.2544582831952
234.4302228702433 203.1189613887218 104.78916301280323
-111.4325041565666 -289.09280936606467 -49.80978433591509
-57.28769969642123 330.95162476765563 -25.607321567234628
202.44233712522208 -206.7016133640007 90.49073453916196
-3603.97038021271 907.8472574634641 -1610.957132751849
94.89079761890252 58.41222616362593 42.415722419910935
-2209.0096730973614 -3219.164256114522 -987.4165194953658
-2218.8441760976984 -3233.585003557731 -991.8124942354599
142.95704137261606 77.86966010067424 63.901098283367304
-17.368574877947886 24.27879253839059 -7.763668019855732
75.88395753681618 -64.97736119001881 33.91975786664412
-3.5215627768747684 39.114673359086076 -1.5741213371195866
-39.835644841719166 -90.4965868821873 -17.806338406074605
14.494401680363186 31.32191809214013 6.478926658263303
-107.95039268393357 14.763436621851 -48.25329753883322
15.351373421822972 10.125869998359704 6.861988835203263
-48.359862888495364 125.68828557085794 -21.61662218059766
-34.62412911199562 -321.470324828454 -15.47681636467784
121.82373934802766 183.0587666042472 54.454615642436046
-118.66948381484191 -21.60055356803054 -53.04467884672696
185.78589751934342 -35.33223289762154 83.04538750283118
-133.98358979807864 183.96215096348072 -59.89000931915912
573.1459086785146 -4001.2590691092246 256.19341789337847
1515.9029204688159 3734.701189590659 677.6011910909393
-3096.1636734439667 -2178.8517270481993 -1383.9700185347638
234.15219790662195 20.0 104.66488721389878
-534.7420994375334 20.0 4004.766632800111
2.165525413944417 9.39158833765729 -16.2179561500157
-6.973819628329534 137.8794907739513 52.228018291578515
-0.39810126228094334 0.733383330189195 2.9814421818205243
11.28184233757451 115.23291304086558 -84.49146943461837
-2.49044138178866 14.883690352773389 18.651302295485173
16.157540805503373 -19.070625412882137 -121.00633249943881
-17.441453891383656 181.03117301856557 130.62175700249765
3.0718870168959347 -188.97502837392886 -23.005838960382448
20.135851740350386 323.54762715893344 -150.8005209568978
-38.54949145395458 -151.0351225976432 288.7031285709433
44.39623232163882 5.144635979375723 -332.4902789788865
-36.65074495062936 217.47747597429233 274.4831211156466
196.9374624912181 -3748.082429634617 -1474.8952427024785
107.46634774188163 4043.638742087619 -804.8321687001497
-372.0197784543836 -2853.65312305902 2786.11389876148
523.8238636602335 910.1380571609409 -3922.99826936666
-7.657278836534991 41.38133841505683 57.34655044900582
29.321727251399057 -276.5786942223067 -219.59496930573354
28.12094553084688 -264.4332202645818 -210.60212850864303
-29.606158510649557 102.66896214693178 221.72511918091612
2.5179618164051774 24.27879253839059 -18.85740710449182
-11.06955480284513 -65.50636974794438 82.90161511692416
0.5105289678949246 39.114673359086076 -3.8234307301669825
5.828536880732085 -91.51970342739274 -43.65081792242059
-2.1012863887371296 31.32191809214013 15.73686011335737
15.844180597140841 14.698399885065946 -118.65952923143811
-2.2255235318474536 10.125869998359704 16.667291373222593
7.112841072443969 127.22595983225091 -53.26917147779443
3.1167395477713775 -192.02626654147366 -23.341746530097918
-11.641885481421932 127.4856767615752 87.18788845673248
26.39812915812542 -43.833440271226216 -197.6996891249218
-26.906984118729994 -35.277134178343715 201.51058295450343
15.301677249186614 149.16536636909512 -114.5966374031069
-3.6123096075892365 -154.82231556699097 27.05314767442685
-26.42727651906475 466.7041111810282 197.91797823783585
452.4382273690672 -2196.3909676632725 -3388.380152370126
-11.886510676280997 20.0 89.01992453345856
-4052.9847645588466 20.0 632.7517875548608
16.16606950926802 9.39158833765729 -2.523845998428981
-41.642287611597936 114.28898549514939 6.501191949824724
-2.971903555746613 0.733383330189195 0.46397344095222615
84.78785516709442 115.87371035887783 -13.237075892576472
-18.591630570347277 14.883690352773389 2.9025244752498582
120.76034507984826 -19.116347006047462 -18.853099296891372
-12.489758439859296 35.44685800389547 1.9499004901415127
22.64430115099363 -186.35116232757116 -3.5352272124273303
147.60424205495892 318.067427611062 -23.04396720847815
-281.81548294108904 -147.4905631098749 43.99701971517771
326.945260617727 5.345497737881944 -51.04267844712075
-264.9733540894692 211.2475179676942 41.36762736456232
99.3752899580015 -234.70021339914288 -15.514465514294209
53.247326436553834 287.05649281791847 -8.312970056011038
-189.30855215172156 -175.88329048268739 29.554842105719736
263.2169008972609 79.91626105297104 -41.09340997622057
-52.149262275468914 39.5059648608179 8.141540331712026
33.84586741095646 -25.857976869404453 -5.2840152010683825
34.277514566966204 -26.44281829349015 -5.351403934415341
-31.778891121838083 31.88660982899317 4.961318961691938
18.797075981456782 24.27879253839059 -2.934598603004106
-83.49307882024578 -66.39281652068455 13.034935471246415
3.8111983024254874 39.114673359086076 -0.5950040966532639
43.72164378520312 -92.05916487850106 -6.825820936175016
-15.686512658989797 31.32191809214013 2.4489776059047488
119.06954922053076 14.663005742597889 -18.58913232821959
-16.613967159510345 10.125869998359704 2.5937717581581325
53.510466804183686 128.05737672939944 -8.35405151761721
36.969041123884026 -316.88849813386724 -5.771604931723186
-12.2019183154938 35.090868290378836 1.9049629036953653
119.97930334045552 -18.863354190532625 -18.731163097901113
-187.28922611482153 -31.54091626159977 29.23958502144011
112.56943575188264 147.28768120468717 -17.574334924448888
-30.458201313639005 -177.45812007495843 4.755132932015507
-196.982374251028 466.0194022429825 30.752878844760545
403.4553531989936 -244.75331382542072 -62.9874304407922
-91.37316459610787 20.0 14.265174085603773
-136.86859030444467 20.0 -288.8652133575001
50.83035252362708 -56.96810676862805 107.27896440018831
-3.407306498714654 37.80243238918874 -7.191221276819438
-8.480537210108848 -106.86326053352346 -17.898424942751518
5.568640732723654 34.5297066293473 11.752781188082762
-52.88312962946453 -13.581357525565842 -111.61141127740198
7.952231282130468 14.056192888506775 16.78341963536836
-34.851578978296104 119.46043039381989 -73.55528960309852
9.822327665126183 -186.5400011718166 20.730313436725822
774.4475704620954 3628.68905235674 1634.4945336115295
-1476.5987566750812 -2005.0220263312697 -3116.405407125139
1740.081619146761 -159.9730204751368 3672.493791718189
-1411.3876798142812 2370.6159915072385 -2978.775498109735
17.16106041078328 -81.49316128437945 36.218926241405725
31.063004224471243 379.4930927031399 65.55939038217319
-1206.927891671529 -2861.70978042094 -2547.2570599237943
39.9617319331495 40.99022021653559 84.34041875734576
-40.05888508838496 54.5748166912738 -84.54546336877209
1028.6422355918535 -3195.9949218890997 2170.979902633858
25.58402295881149 -59.98707915166564 53.99583815469654
-103.1152813073186 108.99878120430756 -217.62785507618358
8.146077490031521 24.27879253839059 17.19253779812087
-35.42584534652804 -64.58417915372276 -74.76729578080786
1.6516567115045788 39.114673359086076 3.4858704053345075
19.282602794777656 -94.04029055239886 40.69650427473201
-6.798054537554091 31.32191809214013 -14.347495433674487
51.57543298454838 14.665660303282994 108.85147877937344
-7.199984935514495 10.125869998359704 -15.19578144219873
23.232007369420433 128.25405599539155 49.03183959565278
16.296338638093477 -322.67293009970126 34.39390533041879
-56.67042464117896 181.72767463196766 -119.60460956470222
58.365299543513466 -23.62449609214925 123.18169324173947
-86.61528607097937 -35.00164058195459 -182.80412646364385
1158.5485651601655 3042.8868364066943 2445.151058512429
-23.937042801305676 -338.082421203735 -50.51983775507792
-704.3968408209455 3700.3196714482565 -1486.65039407134
142.00379442298276 -195.0243440790234 299.7032137346228
-169.44472779971184 20.0 -357.618116320862
